ply
format ascii 1.0
element vertex 1253
property float x
property float y
property float z
property uchar red
property uchar green
property uchar blue
end_header
32.3625 82.9431 -88.5449  255 255 255
32.2087 82.8235 -88.0452  255 255 255
-77.5392 42.9429 -48.5657  255 255 255
31.8227 79.3336 -89.5789  255 255 255
-4.79808 63.1333 -79.4568  255 255 255
-135.995 9.04643 17.3328  255 255 255
-57.8016 41.5722 -61.1059  255 255 255
40.8201 70.144 -103.674  255 255 255
12.1255 50.6099 -99.5672  255 255 255
14.2912 51.2798 -100.137  255 255 255
54.692 64.3401 -116.038  255 255 255
-148.957 -2.62235 -37.3913  255 255 255
-149.964 -3.13819 -35.7715  255 255 255
-31.0616 31.3836 -78.0458  255 255 255
18.7764 39.2769 -87.6711  255 255 255
24.0178 40.7706 -89.1889  255 255 255
13.5442 35.9114 -83.6988  255 255 255
-56.4564 14.0572 -57.7746  255 255 255
24.0125 37.751 -85.765  255 255 255
26.1583 38.3555 -85.914  255 255 255
26.3282 38.4252 -86.2644  255 255 255
-55.4583 12.5337 -54.1783  255 255 255
-72.0928 4.88867 -45.8364  255 255 255
9.85103 29.1369 -74.7264  255 255 255
11.2705 27.586 -72.6045  255 255 255
-95.7065 -10.9657 -24.6656  255 255 255
29.3754 21.5259 -61.3736  255 255 255
-56.7118 -4.93763 -31.1911  255 255 255
-22.5475 1.07966 10.248  255 255 255
-27.8138 -0.757894 6.4074  255 255 255
36.1897 14.2492 -54.8069  255 255 255
-12.2295 -4.4151 34.8608  255 255 255
-9.49741 -3.61558 35.8485  255 255 255
-13.0274 -6.61614 35.475  255 255 255
6.91656 -1.60622 34.469  255 255 255
-11.3746 -8.80053 37.2784  255 255 255
-11.3984 -8.84523 37.0672  255 255 255
2.28225 -5.46862 37.8693  255 255 255
-61.0807 -29.7259 -5.43228  255 255 255
-5.35007 -10.8898 39.6043  255 255 255
12.0115 -7.12598 34.6851  255 255 255
-9.84047 -15.5082 38.5938  255 255 255
1.53633 -11.9986 39.9836  255 255 255
-8.9523 -19.0101 37.9894  255 255 255
6.88757 -14.5372 38.5769  255 255 255
-83.9597 -45.5041 19.2772  255 255 255
-80.3461 -46.1305 19.8229  255 255 255
-69.5148 -44.8375 18.629  255 255 255
-76.2547 -46.6503 21.3633  255 255 255
0.16405 -20.6484 39.0159  255 255 255
0.361496 -21.5118 39.4179  255 255 255
16.1671 -18.2046 34.7862  255 255 255
15.434 -19.484 36.2283  255 255 255
-76.4884 -51.3872 25.9873  255 255 255
-76.2161 -52.7603 30.0962  255 255 255
15.8106 -21.9353 36.1524  255 255 255
-49.4495 -47.622 21.9863  255 255 255
-49.4079 -47.5506 22.2453  255 255 255
-47.1261 -46.9544 21.517  255 255 255
-71.7483 -53.603 30.7095  255 255 255
-63.4346 -51.6079 27.9929  255 255 255
-49.6305 -48.3635 23.1152  255 255 255
1.15889 -27.7829 41.5988  255 255 255
-63.8508 -52.4531 29.16  255 255 255
-1.67453 -29.68 44.1015  255 255 255
-82.153 -59.6567 37.2493  255 255 255
-59.0672 -54.8907 31.1915  255 255 255
-60.7564 -55.569 32.9273  255 255 255
-60.7144 -55.5582 33.1272  255 255 255
-41.2372 -51.3309 25.1208  255 255 255
-40.9088 -50.6302 26.7938  255 255 255
-40.0501 -51.1614 26.5944  255 255 255
1.39777 -33.7127 41.7685  255 255 255
-40.9816 -52.394 27.8894  255 255 255
58.8317 -29.2333 -0.816277  255 255 255
-51.358 -55.8221 31.1583  255 255 255
-50.7179 -56.4037 31.081  255 255 255
-17.9939 -46.4523 33.3976  255 255 255
61.3383 -32.2653 3.67185  255 255 255
20.5192 -37.5799 28.5929  255 255 255
52.2724 -45.7438 19.5407  255 255 255
35.3658 87.7874 -87.1671  255 255 255
48.0945 81.9443 -100.753  255 255 255
-43.6404 46.8752 -64.9204  255 255 255
40.2232 67.259 -105.306  255 255 255
59.7284 71.5556 -113.96  255 255 255
-115.311 -11.6208 -24.1988  255 255 255
4.9544 6.77371 21.6798  255 255 255
-12.3075 0.78085 30.282  255 255 255
47.0502 14.6221 -57.0519  255 255 255
57.1902 14.4816 -5.49715  255 255 255
-10.8828 -5.26761 36.0142  255 255 255
-13.3733 -15.2727 37.2039  255 255 255
60.5849 1.00454 -5.15076  255 255 255
3.7539 -11.7289 39.3286  255 255 255
-86.1102 -43.9847 18.5277  255 255 255
-12.7575 -19.6144 37.2485  255 255 255
-12.7824 -19.5775 37.4013  255 255 255
-79.0191 -46.7164 18.9146  255 255 255
-43.5546 -38.0608 12.2423  255 255 255
-19.0536 -26.2198 39.7618  255 255 255
-80.7968 -49.4262 25.0581  255 255 255
17.0444 -18.6272 34.5947  255 255 255
2.71849 -22.9704 40.9347  255 255 255
-80.3708 -52.3383 28.618  255 255 255
-48.1263 -47.6483 21.9824  255 255 255
-1.09813 -28.8905 43.0057  255 255 255
-58.3396 -53.4309 29.0034  255 255 255
-52.0012 -52.2124 24.9963  255 255 255
-51.6409 -52.762 28.34  255 255 255
-43.4814 -51.9612 27.3496  255 255 255
-43.3712 -51.8979 27.7845  255 255 255
0.314072 -33.6295 41.5385  255 255 255
61.0687 -30.0584 -0.221325  255 255 255
-36.4031 -52.7995 28.5229  255 255 255
-0.0837871 -38.3117 37.8771  255 255 255
45.0568 -36.2065 8.43078  255 255 255
-51.6525 -65.3692 45.897  255 255 255
61.0347 -40.0223 12.3099  255 255 255
60.4017 -42.4039 17.0315  255 255 255
49.1625 -51.1312 29.5657  255 255 255
55.3208 71.1705 -111.596  255 255 255
-79.6539 7.18345 -50.0567  255 255 255
35.552 22.1368 -66.7247  255 255 255
-13.9329 -13.4166 36.512  255 255 255
1.37966 -9.83001 39.2553  255 255 255
-2.45626 -15.3603 40.6247  255 255 255
-2.41835 -15.4122 40.1907  255 255 255
-79.7603 -45.5405 18.1436  255 255 255
-77.5569 -50.2959 25.1036  255 255 255
-26.2496 -34.414 25.7059  255 255 255
-70.1386 -50.0478 26.3493  255 255 255
3.22821 -23.9743 41.1759  255 255 255
-88.1171 -56.9904 33.5193  255 255 255
-4.81438 -29.6965 44.3864  255 255 255
-64.5594 -53.6232 29.3829  255 255 255
-25.6527 -41.1713 27.1381  255 255 255
4.6773 -29.5707 44.0184  255 255 255
18.5862 -34.791 32.5853  255 255 255
16.5559 -41.2359 30.5551  255 255 255
60.8682 -41.2506 15.5382  255 255 255
25.3076 75.7402 -88.7884  255 255 255
-15.8995 53.539 -85.028  255 255 255
16.6733 55.9335 -98.336  255 255 255
16.6596 55.9383 -98.259  255 255 255
55.5518 67.4123 -114.179  255 255 255
-10.4824 -14.0994 38.4253  255 255 255
-81.5529 -51.4927 23.7318  255 255 255
6.48579 -26.6942 40.7084  255 255 255
15.2755 -27.9267 39.6436  255 255 255
-80.8386 -64.2261 43.1519  255 255 255
-80.8085 -65.9648 46.4362  255 255 255
-52.4658 -64.0338 43.6127  255 255 255
-52.4658 -64.0338 43.6127  255 255 255
62.6982 -40.2656 11.7977  255 255 255
15.093 67.0461 -87.5949  255 255 255
-81.4504 -60.6079 38.9863  255 255 255
-78.8309 -66.8354 46.3953  255 255 255
-9.21142 -46.3136 33.3966  255 255 255
46.8681 81.0197 -101.005  255 255 255
-63.0271 36.8645 -60.2642  255 255 255
53.4399 82.1579 -101.777  255 255 255
-1.72711 -21.8189 39.5481  255 255 255
4.3078 -25.0847 39.1887  255 255 255
23.563 61.4744 -100.352  255 255 255
13.1746 -22.7194 37.3452  255 255 255
-48.8327 58.758 -54.8302  255 255 255
-48.6713 39.9381 -67.3818  255 255 255
-21.3702 106.925 -47.3243  255 255 255
31.3845 115.59 -62.969  255 255 255
31.2706 115.49 -63.8092  255 255 255
61.4928 121.904 -75.3596  255 255 255
40.6129 115.771 -67.8451  255 255 255
0.270466 104.518 -51.3835  255 255 255
-5.93256 103.565 -49.7202  255 255 255
40.1847 115.363 -69.1188  255 255 255
64.6053 121.326 -78.9537  255 255 255
40.1339 114.684 -70.6199  255 255 255
-1.04958 102.665 -51.9217  255 255 255
40.9678 112.855 -71.1052  255 255 255
13.616 104.553 -60.0146  255 255 255
-14.5498 96.8922 -47.8213  255 255 255
37.4428 110.66 -70.9162  255 255 255
37.4428 110.66 -70.9162  255 255 255
-22.101 94.9366 -44.5538  255 255 255
17.7518 105.832 -62.9338  255 255 255
15.7511 104.901 -61.5959  255 255 255
13.611 104.292 -60.7455  255 255 255
13.5255 104.209 -60.6037  255 255 255
60.0795 68.3595 -9.71687  255 255 255
-21.1102 94.8601 -45.0618  255 255 255
79.383 121.048 -88.4825  255 255 255
-11.5376 97.2178 -49.5304  255 255 255
-9.33976 97.6505 -50.4161  255 255 255
-10.2288 97.2604 -50.1955  255 255 255
58.1095 70.9532 -14.718  255 255 255
6.06321 101.343 -57.7252  255 255 255
-45.9495 84.8736 -29.713  255 255 255
-30.4643 91.8119 -41.2803  255 255 255
-2.71666 99.0779 -53.964  255 255 255
-13.8992 95.8228 -48.5504  255 255 255
25.1177 106.288 -66.4286  255 255 255
27.4994 106.939 -67.613  255 255 255
64.3801 62.6406 -2.67714  255 255 255
14.663 103.409 -61.6294  255 255 255
4.02578 100.334 -57.0433  255 255 255
3.03554 99.9851 -56.5873  255 255 255
60.4246 68.093 -11.6718  255 255 255
60.6042 67.4926 -10.8018  255 255 255
-52.9752 85.6247 -31.1246  255 255 255
62.7782 63.7761 -5.33454  255 255 255
-46.0627 85.7481 -32.1593  255 255 255
20.7361 104.487 -64.8593  255 255 255
57.4426 71.2724 -17.1162  255 255 255
24.8267 105.718 -67.2157  255 255 255
25.2039 105.308 -66.6022  255 255 255
26.573 105.992 -67.9435  255 255 255
-8.42091 96.6157 -51.9899  255 255 255
22.8139 104.85 -66.2759  255 255 255
58.7167 69.0798 -14.3913  255 255 255
62.163 65.2369 -8.47756  255 255 255
17.5436 103.323 -63.8761  255 255 255
58.4607 68.1436 -13.1752  255 255 255
-16.0724 94.5297 -48.7531  255 255 255
-13.2328 95.1693 -50.1152  255 255 255
-55.6409 84.2685 -30.2593  255 255 255
59.4074 68.3909 -13.927  255 255 255
-14.0756 94.765 -49.7874  255 255 255
1.9162 98.8545 -56.875  255 255 255
2.93088 99.2739 -57.6589  255 255 255
53.0547 112.281 -79.9682  255 255 255
23.8422 104.457 -67.0695  255 255 255
23.8422 104.457 -67.0695  255 255 255
-46.7033 86.3375 -34.8795  255 255 255
27.3371 105.372 -68.8999  255 255 255
66.9045 58.6915 0.149485  255 255 255
-39.3107 88.2434 -38.5365  255 255 255
3.87825 98.9434 -57.9529  255 255 255
5.68847 99.501 -58.9221  255 255 255
26.7761 105.013 -69.0469  255 255 255
26.7429 104.958 -68.9403  255 255 255
58.5287 41.4111 26.5016  255 255 255
-7.87814 95.7873 -53.1101  255 255 255
89.7753 120.465 -95.7379  255 255 255
64.9022 114.078 -85.431  255 255 255
58.9252 67.7942 -14.7742  255 255 255
61.5655 40.2906 26.9495  255 255 255
64.5483 113.214 -85.3831  255 255 255
57.2884 69.7204 -19.014  255 255 255
62.5871 38.2373 29.7505  255 255 255
6.67114 98.4942 -60.2776  255 255 255
6.6223 98.4569 -60.1973  255 255 255
6.71594 98.5599 -60.397  255 255 255
56.2714 46.8724 16.0916  255 255 255
0.433402 96.8773 -57.638  255 255 255
21.7188 102.41 -67.4734  255 255 255
2.20486 97.1922 -58.4427  255 255 255
-0.335358 96.5101 -57.5208  255 255 255
29.3668 103.845 -71.1375  255 255 255
58.5662 43.3121 20.7423  255 255 255
58.6423 43.3864 20.714  255 255 255
59.2157 42.7916 21.4386  255 255 255
60.5199 39.6679 26.4359  255 255 255
57.8877 44.3807 18.7393  255 255 255
-13.7095 92.5615 -51.7238  255 255 255
24.9783 102.231 -69.6821  255 255 255
57.6831 67.7202 -18.2033  255 255 255
62.4777 40.7245 23.2985  255 255 255
58.5603 66.4721 -17.4003  255 255 255
-0.397737 95.1911 -58.0685  255 255 255
57.8735 66.6982 -18.2801  255 255 255
65.0915 37.1679 28.2779  255 255 255
24.3962 100.475 -68.782  255 255 255
57.3457 44.3557 16.785  255 255 255
60.014 41.3612 21.5773  255 255 255
59.339 109.573 -85.5586  255 255 255
40.332 105.075 -77.5053  255 255 255
39.5839 104.581 -77.2691  255 255 255
-11.6499 91.8061 -53.5399  255 255 255
-15.2373 90.6659 -51.8085  255 255 255
0.411947 94.6502 -59.5324  255 255 255
16.7608 98.2165 -67.1014  255 255 255
-9.73737 91.4313 -55.046  255 255 255
56.4934 44.776 13.6663  255 255 255
-25.5398 87.5023 -47.5872  255 255 255
61.586 61.2046 -12.8048  255 255 255
80.746 112.475 -96.0662  255 255 255
61.8846 60.3793 -12.2954  255 255 255
63.2026 59.2791 -10.477  255 255 255
77.9138 111.765 -94.8414  255 255 255
61.3708 60.6497 -12.7694  255 255 255
59.1742 107.48 -86.8688  255 255 255
59.1865 107.458 -86.8606  255 255 255
63.4137 37.7451 23.8434  255 255 255
80.3989 111.855 -96.2324  255 255 255
26.5727 98.7512 -72.1853  255 255 255
26.5159 98.6993 -72.0407  255 255 255
74.2907 110.537 -94.2838  255 255 255
74.2907 110.537 -94.2838  255 255 255
64.4567 56.6803 -7.60688  255 255 255
-61.7245 76.826 -28.9945  255 255 255
79.4863 110.845 -96.3391  255 255 255
-12.6224 89.2535 -54.7155  255 255 255
57.4766 42.5878 14.4101  255 255 255
80.5158 111.046 -97.0962  255 255 255
60.3756 106.04 -88.5431  255 255 255
56.5437 42.3336 14.0483  255 255 255
-9.66317 89.4292 -56.6755  255 255 255
64.6613 55.6324 -8.41105  255 255 255
63.9074 56.4865 -9.92992  255 255 255
-8.02226 89.4115 -57.7323  255 255 255
-8.02226 89.4115 -57.7323  255 255 255
71.8443 107.628 -94.1284  255 255 255
-56.2019 78.2139 -34.5786  255 255 255
52.8943 103.292 -86.3074  255 255 255
63.6095 55.7891 -10.2841  255 255 255
73.0151 107.564 -95.4795  255 255 255
-0.845879 90.3708 -61.5441  255 255 255
54.0488 102.929 -87.2178  255 255 255
75.0491 107.552 -96.2591  255 255 255
75.099 107.64 -96.3884  255 255 255
-63.6536 76.0568 -31.4561  255 255 255
57.1493 40.6402 13.7229  255 255 255
-7.23046 88.4075 -58.9249  255 255 255
46.1006 100.612 -84.2273  255 255 255
98.5829 112.46 -108.171  255 255 255
67.2679 50.7834 -4.48219  255 255 255
56.9613 40.4414 13.2828  255 255 255
-54.4172 77.7156 -36.7706  255 255 255
60.4519 58.5839 -17.6972  255 255 255
-30.497 82.6518 -48.2125  255 255 255
47.3803 100.04 -85.125  255 255 255
49.2244 100.328 -85.8126  255 255 255
62.3959 56.4198 -14.8927  255 255 255
66.7749 50.946 -5.94749  255 255 255
-17.2756 85.3842 -54.9645  255 255 255
48.2503 99.9939 -85.5774  255 255 255
-2.13548 88.7058 -62.4706  255 255 255
58.4293 37.9621 15.5076  255 255 255
109.759 113.253 -113.751  255 255 255
-35.6067 80.7722 -46.1917  255 255 255
56.9387 39.3753 12.9566  255 255 255
15.4641 92.1067 -71.2744  255 255 255
63.9718 53.3446 -11.5553  255 255 255
63.7089 31.7714 25.0086  255 255 255
-1.57649 87.7083 -62.8515  255 255 255
59.6975 58.0439 -19.6156  255 255 255
65.5882 29.5236 28.1544  255 255 255
55.0021 99.6585 -89.6119  255 255 255
12.4722 90.6008 -70.4897  255 255 255
-31.5562 80.9202 -49.0694  255 255 255
-17.6576 83.7172 -55.5827  255 255 255
-17.6879 83.6844 -55.5071  255 255 255
-2.42721 87.0661 -63.1773  255 255 255
-2.42721 87.0661 -63.1773  255 255 255
-2.44883 87.0612 -63.128  255 255 255
-4.04346 86.0683 -61.5272  255 255 255
-61.4945 74.0189 -34.0334  255 255 255
-61.4945 74.0189 -34.0334  255 255 255
-19.1822 83.289 -55.1301  255 255 255
117.697 113.296 -119.116  255 255 255
-18.7621 83.0219 -55.1276  255 255 255
-18.7621 83.0219 -55.1276  255 255 255
61.9261 32.8812 20.8153  255 255 255
65.9949 28.0488 28.7226  255 255 255
-36.877 79.0196 -46.9307  255 255 255
-36.8936 78.9446 -46.7632  255 255 255
-14.2926 83.6848 -57.8225  255 255 255
-1.20642 86.6693 -64.3565  255 255 255
69.4812 102.15 -97.6731  255 255 255
-21.3992 82.1716 -54.4102  255 255 255
41.495 95.9373 -84.8153  255 255 255
69.7368 101.673 -97.2644  255 255 255
-62.2725 73.3199 -34.4743  255 255 255
83.9443 104.622 -104.291  255 255 255
36.6049 94.6203 -83.0797  255 255 255
40.7104 95.3639 -84.8024  255 255 255
40.7237 95.4078 -84.8977  255 255 255
65.7082 28.2667 27.0942  255 255 255
-18.1253 82.6975 -56.6907  255 255 255
39.6503 94.9299 -84.3654  255 255 255
-18.063 82.1509 -56.6179  255 255 255
-18.0871 82.128 -56.5399  255 255 255
40.0925 94.5034 -84.4895  255 255 255
62.1473 53.1969 -16.3787  255 255 255
61.1228 54.0451 -18.3201  255 255 255
-41.1389 77.0743 -45.3832  255 255 255
-16.3785 82.4403 -57.8702  255 255 255
-7.99494 83.8823 -62.0698  255 255 255
44.3152 95.0556 -87.3475  255 255 255
44.3152 95.0556 -87.3475  255 255 255
40.6648 94.5526 -86.2414  255 255 255
56.7172 37.1436 10.2865  255 255 255
-23.4227 80.2571 -54.584  255 255 255
54.3005 96.0462 -91.997  255 255 255
40.0523 93.1602 -85.8504  255 255 255
58.2704 56.5434 -25.6154  255 255 255
65.7253 46.8849 -9.42525  255 255 255
-45.3299 74.9605 -44.256  255 255 255
60.6029 31.6025 17.8127  255 255 255
61.4473 51.456 -17.8904  255 255 255
-49.9314 73.7033 -42.157  255 255 255
38.9415 91.9272 -85.8392  255 255 255
-18.4974 79.8782 -57.8742  255 255 255
66.7142 45.8492 -9.32887  255 255 255
56.6886 35.6109 9.4548  255 255 255
62.4368 29.527 19.6893  255 255 255
62.928 28.9491 20.602  255 255 255
62.928 28.9491 20.602  255 255 255
-52.284 72.7151 -41.1586  255 255 255
-52.284 72.7151 -41.1586  255 255 255
-52.2244 70.9902 -38.2823  255 255 255
-20.7885 78.8336 -57.3256  255 255 255
30.4916 89.3022 -82.4594  255 255 255
60.511 30.8476 16.2972  255 255 255
59.1873 32.3149 13.3579  255 255 255
66.4642 24.4056 26.5589  255 255 255
18.6441 86.2206 -77.3021  255 255 255
-1.79024 82.1208 -67.5437  255 255 255
57.1383 93.813 -95.9092  255 255 255
-61.5801 69.9941 -37.3677  255 255 255
-63.0851 69.4999 -36.4726  255 255 255
-51.8959 71.5453 -42.0468  255 255 255
61.7637 28.9101 17.9248  255 255 255
-54.954 71.3046 -41.2728  255 255 255
-53.4565 69.4245 -38.3345  255 255 255
-53.4565 69.4245 -38.3345  255 255 255
58.178 54.4891 -27.8728  255 255 255
-0.213253 81.8728 -68.6682  255 255 255
55.0061 92.7843 -95.2954  255 255 255
55.0061 92.7843 -95.2954  255 255 255
84.7848 98.5065 -109.183  255 255 255
-0.341507 81.287 -68.8262  255 255 255
60.7506 29.536 15.157  255 255 255
-27.0301 75.7372 -55.4997  255 255 255
-29.8313 75.2431 -54.3662  255 255 255
-48.4159 71.5616 -44.8844  255 255 255
-46.6424 71.839 -45.6355  255 255 255
-14.155 78.0873 -62.155  255 255 255
-71.7907 66.7625 -32.9828  255 255 255
59.8977 30.1057 13.2526  255 255 255
-17.9245 77.1383 -60.4873  255 255 255
39.8037 88.5327 -89.3622  255 255 255
-15.9238 77.3137 -61.2995  255 255 255
59.5552 50.921 -25.1874  255 255 255
-65.0092 67.69 -36.7619  255 255 255
-77.8189 65.2676 -30.7161  255 255 255
-55.8944 69.3763 -41.8644  255 255 255
85.5515 96.3833 -111.223  255 255 255
94.0083 98.0187 -115.493  255 255 255
-62.2113 67.779 -38.1188  255 255 255
-13.2737 77.2463 -63.5518  255 255 255
1.5766 80.1172 -71.097  255 255 255
4.78914 81.1971 -73.5053  255 255 255
59.1378 30.1016 11.4276  255 255 255
84.8312 95.9125 -111.218  255 255 255
-23.1099 74.9972 -58.2149  255 255 255
86.2211 95.9433 -111.942  255 255 255
60.0452 28.2549 14.1691  255 255 255
0.40613 79.4378 -70.6395  255 255 255
-25.8209 74.2096 -57.0632  255 255 255
-24.1372 74.5736 -58.2733  255 255 255
-25.3868 74.4682 -57.7531  255 255 255
-76.5228 64.9023 -31.8004  255 255 255
-73.4792 61.6166 -26.6658  255 255 255
25.1802 83.6626 -83.4024  255 255 255
80.2346 93.6974 -109.327  255 255 255
54.3858 88.8724 -97.8647  255 255 255
-6.9876 77.4107 -67.6493  255 255 255
4.17439 79.381 -73.0924  255 255 255
84.16 94.2282 -111.559  255 255 255
66.5215 21.5746 24.2365  255 255 255
-11.3884 76.3238 -65.2156  255 255 255
2.67042 79.0234 -72.4678  255 255 255
2.54281 78.8657 -72.1108  255 255 255
100.228 97.5233 -120.057  255 255 255
-13.6136 75.8589 -64.1611  255 255 255
-15.3666 75.2449 -62.967  255 255 255
85.1181 94.1964 -112.476  255 255 255
0.209572 78.0111 -70.9329  255 255 255
0.372401 78.2402 -71.3668  255 255 255
59.2355 28.415 11.5879  255 255 255
-25.428 73.3589 -58.4318  255 255 255
26.062 83.3687 -84.9322  255 255 255
73.5423 91.1762 -107.151  255 255 255
60.1021 47.9575 -26.0913  255 255 255
-14.988 74.771 -64.0322  255 255 255
5.15047 78.3371 -74.5285  255 255 255
-15.2641 74.4957 -64.3464  255 255 255
0.518773 76.9707 -72.1333  255 255 255
-46.281 68.3682 -48.1477  255 255 255
77.8917 91.2261 -110.839  255 255 255
63.5582 23.1335 18.3378  255 255 255
58.2394 49.3426 -30.8149  255 255 255
-14.6202 73.7494 -64.9656  255 255 255
99.7104 94.513 -121.563  255 255 255
65.6589 40.2506 -15.2372  255 255 255
66.2958 39.7425 -14.4962  255 255 255
60.6559 46.3856 -26.5014  255 255 255
66.691 18.7536 25.0264  255 255 255
67.1133 18.9962 24.6432  255 255 255
-15.4234 73.2878 -64.584  255 255 255
-15.4234 73.2878 -64.584  255 255 255
0.700484 76.237 -73.0182  255 255 255
43.8112 84.0043 -95.0216  255 255 255
64.6864 18.0379 26.0618  255 255 255
66.8625 18.9456 24.2083  255 255 255
40.0654 83.2713 -93.2096  255 255 255
67.6485 18.3226 24.9293  255 255 255
38.9535 83.2544 -93.3347  255 255 255
26.6986 80.4734 -86.5801  255 255 255
58.6634 27.1961 7.97699  255 255 255
68.5951 16.4649 27.4321  255 255 255
53.5189 84.8855 -100.536  255 255 255
66.933 87.2484 -107.472  255 255 255
87.7169 90.6978 -117.145  255 255 255
-52.6513 65.4523 -45.6506  255 255 255
57.2363 28.3043 5.15598  255 255 255
54.2941 84.3868 -101.54  255 255 255
-63.5071 61.2816 -36.5422  255 255 255
60.5265 24.6767 10.7838  255 255 255
-12.9139 72.0911 -67.3854  255 255 255
49.0434 82.4832 -98.9292  255 255 255
58.9773 25.4895 8.29282  255 255 255
58.9518 25.471 8.29335  255 255 255
58.61 45.7965 -31.3607  255 255 255
-68.4484 62.2167 -39.0929  255 255 255
18.4538 76.8764 -84.375  255 255 255
60.5917 43.8736 -28.2499  255 255 255
58.2754 26.6666 5.37483  255 255 255
35.827 79.7762 -93.4001  255 255 255
61.4672 22.8715 12.0612  255 255 255
-54.063 64.1699 -46.4567  255 255 255
34.6563 80.3833 -94.9377  255 255 255
66.4032 17.5882 21.1339  255 255 255
-53.3423 64.1822 -47.2509  255 255 255
58.8507 24.8636 7.373  255 255 255
-27.0087 68.3175 -61.1279  255 255 255
66.8205 36.0399 -15.8207  255 255 255
-37.9536 66.2684 -55.1321  255 255 255
-6.65226 71.4121 -71.9111  255 255 255
60.9336 42.0498 -27.5099  255 255 255
58.3554 24.8482 6.39227  255 255 255
67.0571 35.6273 -16.1676  255 255 255
31.2249 77.2561 -90.9865  255 255 255
47.5721 80.4311 -100.141  255 255 255
55.9005 27.4561 1.35108  255 255 255
60.9422 21.9983 11.0241  255 255 255
-3.09826 71.2043 -73.9948  255 255 255
65.8187 35.869 -17.661  255 255 255
55.4165 26.9221 1.48188  255 255 255
67.0389 35.1328 -16.5962  255 255 255
65.4767 36.1479 -18.8506  255 255 255
28.9747 76.528 -91.572  255 255 255
28.9611 76.5494 -91.5948  255 255 255
58.8515 20.7894 12.557  255 255 255
60.8662 21.6457 10.553  255 255 255
77.1805 84.1438 -115.496  255 255 255
-36.8079 65.1523 -56.7736  255 255 255
61.7111 20.6629 11.7257  255 255 255
59.517 41.8562 -30.6153  255 255 255
55.3555 26.7909 0.0684608  255 255 255
66.2677 34.7809 -17.7967  255 255 255
63.373 18.7776 14.5517  255 255 255
-26.2561 66.7018 -63.1712  255 255 255
61.6513 38.9602 -25.654  255 255 255
51.5603 78.9852 -102.859  255 255 255
-54.6667 61.8848 -48.1345  255 255 255
64.399 17.2995 16.661  255 255 255
-32.4621 65.3653 -60.2608  255 255 255
22.0859 73.9442 -88.4373  255 255 255
64.975 16.7678 17.3384  255 255 255
55.5298 26.1757 -0.240464  255 255 255
-2.12967 69.9632 -76.2885  255 255 255
82.1287 83.2643 -118.74  255 255 255
65.569 34.1372 -18.5225  255 255 255
58.1846 42.8848 -35.2373  255 255 255
31.9002 75.347 -94.7353  255 255 255
61.6995 19.6206 10.8979  255 255 255
-13.5758 67.7505 -70.6829  255 255 255
64.9539 34.3651 -19.7218  255 255 255
-54.6079 61.2891 -49.1972  255 255 255
-54.5889 61.2364 -49.0433  255 255 255
65.3308 33.8149 -19.1085  255 255 255
61.8606 79.0141 -109.826  255 255 255
61.4899 19.1881 10.6766  255 255 255
61.4941 19.2005 10.643  255 255 255
-55.5714 60.6392 -48.4742  255 255 255
-53.6862 60.895 -49.4478  255 255 255
25.0873 73.2635 -91.6252  255 255 255
-14.8297 66.6907 -70.1053  255 255 255
-14.8069 66.6873 -70.1351  255 255 255
-24.8081 65.3015 -65.5078  255 255 255
58.2136 41.7288 -35.679  255 255 255
61.5685 37.9996 -28.7216  255 255 255
61.6455 38.0319 -28.7945  255 255 255
62.6717 36.7768 -26.8391  255 255 255
65.3802 33.6089 -20.7878  255 255 255
65.6162 33.2307 -20.2682  255 255 255
-54.1686 60.3182 -49.6704  255 255 255
-5.34102 67.5732 -75.1664  255 255 255
55.7047 24.511 -0.785655  255 255 255
55.8591 24.5605 -0.978185  255 255 255
60.5585 19.7776 7.88485  255 255 255
-3.01533 67.9191 -76.8796  255 255 255
62.5132 36.6264 -27.1691  255 255 255
15.2609 68.4221 -81.9004  255 255 255
61.2247 18.8458 9.43793  255 255 255
-27.2219 64.3144 -64.4922  255 255 255
-53.6696 60.0312 -49.8296  255 255 255
14.6823 68.2698 -81.9069  255 255 255
63.6016 35.4054 -25.7074  255 255 255
63.6016 35.4054 -25.7074  255 255 255
58.4267 21.4882 3.45689  255 255 255
64.599 15.164 15.4196  255 255 255
-42.1562 61.5508 -56.5349  255 255 255
-42.1562 61.5508 -56.5349  255 255 255
-43.6723 61.2618 -55.7184  255 255 255
55.9824 76.261 -108.418  255 255 255
63.5312 34.9724 -26.0615  255 255 255
-54.4842 59.4132 -50.0825  255 255 255
-2.46358 66.9736 -78.0786  255 255 255
61.1274 18.1559 8.56908  255 255 255
-12.0291 65.1448 -72.8824  255 255 255
61.6198 36.8057 -30.8985  255 255 255
59.8202 18.9933 6.43731  255 255 255
-56.5885 58.6121 -49.2321  255 255 255
2.71679 67.5875 -81.5851  255 255 255
-55.8892 58.7076 -49.8519  255 255 255
-1.01881 66.8289 -79.3442  255 255 255
15.1695 66.1113 -81.619  255 255 255
62.0734 35.597 -29.4208  255 255 255
-7.69343 65.4582 -75.7735  255 255 255
-7.67851 65.4859 -75.8298  255 255 255
-7.66602 65.5136 -75.8898  255 255 255
-37.0854 61.0643 -59.9821  255 255 255
65.3441 13.4797 15.7418  255 255 255
66.1704 30.9923 -21.2419  255 255 255
66.0215 30.9423 -21.0407  255 255 255
-7.41817 -13.2465 85.2733  255 255 255
57.3638 21.3339 0.584578  255 255 255
57.2275 21.2902 0.741002  255 255 255
62.0466 16.433 9.97278  255 255 255
62.0452 16.4301 9.98321  255 255 255
-38.3338 60.6136 -59.4313  255 255 255
64.1598 14.1891 13.6977  255 255 255
59.9554 18.3565 5.64311  255 255 255
59.9554 18.3565 5.64311  255 255 255
-71.9644 55.9086 -42.0023  255 255 255
60.1483 74.6131 -111.616  255 255 255
63.7848 32.5188 -25.8718  255 255 255
56.9696 73.8432 -110.545  255 255 255
59.681 36.378 -33.3456  255 255 255
63.138 14.7184 11.733  255 255 255
63.9952 13.8406 13.457  255 255 255
59.9852 74.3312 -112.666  255 255 255
-43.2732 59.1343 -57.6347  255 255 255
-43.2262 59.17 -57.755  255 255 255
-0.0803421 65.361 -81.3311  255 255 255
60.8898 73.4693 -112.874  255 255 255
60.8723 73.4508 -112.803  255 255 255
60.9293 16.3671 6.69929  255 255 255
-66.7647 55.3868 -45.0473  255 255 255
-24.488 61.211 -68.1528  255 255 255
-20.8539 61.7432 -70.4666  255 255 255
59.6045 17.2932 4.30193  255 255 255
62.3177 14.7476 9.01152  255 255 255
-13.7263 62.1886 -74.1745  255 255 255
59.3401 35.8435 -36.1586  255 255 255
-7.23646 62.9397 -78.2362  255 255 255
-23.6044 60.4023 -69.1498  255 255 255
-23.5873 60.3968 -69.1915  255 255 255
-21.8151 60.6667 -70.3446  255 255 255
33.8426 68.4638 -100.419  255 255 255
-30.0508 59.5666 -65.9895  255 255 255
-16.446 61.5344 -73.6058  255 255 255
58.0781 18.1609 0.537782  255 255 255
-17.7385 61.0902 -72.858  255 255 255
-11.1336 61.9484 -76.2353  255 255 255
36.1716 68.6113 -101.991  255 255 255
33.23 68.0049 -100.264  255 255 255
58.7518 17.5261 1.42516  255 255 255
40.1875 68.6205 -103.825  255 255 255
30.7062 67.4997 -99.4492  255 255 255
-41.0416 57.6356 -60.3599  255 255 255
23.0851 66.1154 -94.7174  255 255 255
-61.6454 54.6444 -48.7753  255 255 255
-55.2389 55.5433 -52.5474  255 255 255
-15.24 61.0053 -74.8635  255 255 255
32.0462 67.3832 -100.427  255 255 255
-13.5249 60.7001 -75.4736  255 255 255
-53.3937 55.2506 -53.5383  255 255 255
-21.9931 59.5142 -71.0241  255 255 255
74.763 0.598305 32.6202  255 255 255
-59.9153 54.416 -50.3789  255 255 255
-18.6589 59.482 -73.3692  255 255 255
12.1074 63.7312 -90.5447  255 255 255
72.783 2.32525 27.8503  255 255 255
-26.6514 58.1481 -69.433  255 255 255
-40.6261 55.9096 -60.8384  255 255 255
-62.7973 53.3478 -49.373  255 255 255
57.9784 68.8001 -114.599  255 255 255
67.9807 2.2305 28.4951  255 255 255
-3.30613 60.9495 -82.7436  255 255 255
57.2063 17.2289 -2.77564  255 255 255
-30.5954 57.1339 -67.7142  255 255 255
14.6848 62.7737 -92.5759  255 255 255
62.2167 68.8484 -118.118  255 255 255
-25.2838 57.5881 -70.6469  255 255 255
-24.4811 57.4949 -70.8857  255 255 255
-26.7211 57.1663 -69.8067  255 255 255
61.4385 12.5364 5.42379  255 255 255
-31.1699 56.4601 -67.205  255 255 255
-40.9711 55.0792 -61.8664  255 255 255
-40.9711 55.0792 -61.8664  255 255 255
60.8191 13.1348 3.67085  255 255 255
58.0556 15.4 -1.23282  255 255 255
-68.3022 51.7305 -47.3267  255 255 255
-56.132 52.9728 -53.6649  255 255 255
-43.6142 54.531 -60.9609  255 255 255
-31.1404 55.8629 -67.8907  255 255 255
55.9142 17.4924 -6.41653  255 255 255
-23.3653 56.7329 -72.4901  255 255 255
56.4617 16.6807 -4.89325  255 255 255
-43.3729 54.262 -61.4851  255 255 255
0.872718 59.2284 -85.0604  255 255 255
37.7697 64.1824 -106.284  255 255 255
-24.5654 56.207 -72.2577  255 255 255
-26.661 55.8639 -71.0156  255 255 255
-33.234 54.9438 -67.2371  255 255 255
61.3045 11.416 4.60876  255 255 255
-18.0386 54.0819 -70.3605  255 255 255
33.2575 62.9844 -104.436  255 255 255
70.0417 2.60929 20.9527  255 255 255
-50.5603 52.3168 -57.9757  255 255 255
-48.8581 52.4676 -58.8552  255 255 255
-49.0075 52.1259 -58.012  255 255 255
-16.6225 53.5909 -71.2235  255 255 255
-16.6225 53.5909 -71.2235  255 255 255
36.3908 62.7024 -106.384  255 255 255
59.5074 12.5116 0.521351  255 255 255
60.1167 11.8846 1.37772  255 255 255
67.3937 4.85747 15.349  255 255 255
-39.2142 53.1676 -64.7984  255 255 255
69.0009 3.12968 18.5247  255 255 255
-57.5803 50.7171 -53.9245  255 255 255
60.3457 11.3276 1.52798  255 255 255
70.0601 0.980838 22.5875  255 255 255
72.3883 0.823252 22.3615  255 255 255
-7.81584 56.3258 -82.2181  255 255 255
60.1313 29.0195 -39.5821  255 255 255
60.1313 29.0195 -39.5821  255 255 255
-48.0576 51.6531 -60.1995  255 255 255
60.8278 28.4378 -38.9059  255 255 255
67.8031 3.89243 15.9321  255 255 255
-38.9986 52.5374 -65.6449  255 255 255
59.279 11.5671 -0.522132  255 255 255
69.8584 1.75405 19.2171  255 255 255
51.1727 62.5157 -116.27  255 255 255
70.9179 0.301373 21.7682  255 255 255
72.9005 -1.70572 25.6268  255 255 255
72.9005 -1.70572 25.6268  255 255 255
70.9185 0.311341 21.2703  255 255 255
72.1097 -0.437858 22.5569  255 255 255
-51.1649 50.5448 -59.2186  255 255 255
-33.411 52.5482 -69.2687  255 255 255
-28.8554 53.0551 -71.856  255 255 255
-28.8631 53.0254 -71.8049  255 255 255
42.7301 61.0933 -111.658  255 255 255
60.6471 9.92822 1.26526  255 255 255
-45.7207 50.8291 -61.9166  255 255 255
-53.6936 49.9046 -58.0421  255 255 255
70.2265 0.772667 19.1706  255 255 255
66.719 3.73834 12.8648  255 255 255
-53.3111 49.7824 -58.3866  255 255 255
-65.1787 48.253 -51.4534  255 255 255
-32.1074 51.952 -70.9014  255 255 255
60.7165 9.25811 0.644951  255 255 255
61.3546 8.3498 2.09628  255 255 255
-48.5616 49.561 -61.1079  255 255 255
58.3557 11.1591 -4.02544  255 255 255
58.3557 11.1591 -4.02544  255 255 255
-65.2642 47.6009 -52.0284  255 255 255
-58.0649 48.2742 -56.0004  255 255 255
-50.5361 49.1227 -60.7472  255 255 255
66.6631 2.93221 11.9963  255 255 255
35.943 58.4763 -109.902  255 255 255
-73.5388 46.3001 -47.1843  255 255 255
70.2103 -0.521901 18.4394  255 255 255
59.6911 9.10246 -1.75669  255 255 255
64.8995 20.8743 -31.5964  255 255 255
60.6009 8.1562 0.0576092  255 255 255
60.6009 8.1562 0.0576092  255 255 255
-63.06 47.2132 -53.7829  255 255 255
68.389 0.773217 14.9542  255 255 255
68.556 0.406393 15.2436  255 255 255
67.049 1.90514 12.1741  255 255 255
-65.5136 46.6159 -52.5283  255 255 255
-65.5007 46.5779 -52.4889  255 255 255
66.0261 2.31249 10.8597  255 255 255
61.8296 6.78375 1.15859  255 255 255
72.9611 -4.08798 23.8531  255 255 255
73.3079 -4.0628 23.6048  255 255 255
64.838 20.0756 -32.1857  255 255 255
64.8508 20.0889 -32.2061  255 255 255
63.2801 4.90255 4.56326  255 255 255
-75.3329 45.3095 -47.6846  255 255 255
-71.7489 45.7504 -49.595  255 255 255
-59.0421 46.8958 -56.6086  255 255 255
69.8155 -1.14793 17.0489  255 255 255
63.557 -3.42707 24.5856  255 255 255
-70.0851 45.6923 -50.153  255 255 255
-37.8854 49.0496 -69.6034  255 255 255
-37.8957 49.0854 -69.7143  255 255 255
68.0321 0.226709 13.4756  255 255 255
-50.4291 47.1367 -61.4949  255 255 255
73.8416 -5.59697 25.6989  255 255 255
73.8416 -5.59697 25.6989  255 255 255
-63.6136 45.9467 -54.4701  255 255 255
-56.9563 46.4189 -57.9166  255 255 255
-30.1024 49.1135 -73.8609  255 255 255
73.8234 -5.849 25.5475  255 255 255
20.7803 54.0397 -103.251  255 255 255
12.4569 53.2109 -98.5451  255 255 255
-29.7055 48.941 -74.4173  255 255 255
69.4681 -1.59125 15.7757  255 255 255
-7.19706 50.9885 -87.6522  255 255 255
70.4767 -2.65469 17.7103  255 255 255
70.6198 -2.64075 17.5675  255 255 255
-56.2035 45.9677 -58.8789  255 255 255
-75.5537 44.0694 -47.9274  255 255 255
-10.5484 2.25764 30.1679  255 255 255
5.03153 -2.06382 35.3543  255 255 255
71.1528 -3.5223 18.1339  255 255 255
-15.9521 48.8221 -81.5547  255 255 255
-72.8991 44.0036 -49.696  255 255 255
71.9363 -4.14429 19.3052  255 255 255
76.4022 -9.10585 29.9788  255 255 255
76.4022 -9.10585 29.9788  255 255 255
-53.2043 45.3532 -60.1619  255 255 255
-50.2845 45.5336 -61.6831  255 255 255
-56.5393 45.241 -59.2784  255 255 255
-67.5042 44.162 -53.1349  255 255 255
-4.30521 50.3728 -90.0865  255 255 255
-14.1564 47.5577 -80.5505  255 255 255
-15.411 47.6924 -80.9274  255 255 255
-68.9768 43.6711 -52.2158  255 255 255
-68.9994 43.8128 -52.4147  255 255 255
-27.7719 47.6875 -76.6627  255 255 255
-70.5863 43.2886 -51.2869  255 255 255
-57.458 44.2316 -59.119  255 255 255
61.7932 3.85291 -0.573668  255 255 255
61.7932 3.85291 -0.573668  255 255 255
-71.9041 43.2033 -51.4521  255 255 255
-63.7201 43.7344 -56.0102  255 255 255
-66.4348 43.4083 -54.6407  255 255 255
-73.5782 42.6328 -50.5663  255 255 255
-40.5823 45.4018 -69.3632  255 255 255
-40.5823 45.4018 -69.3632  255 255 255
73.2952 -7.63639 23.3417  255 255 255
-61.7868 43.3842 -57.4309  255 255 255
-44.6565 44.8687 -67.2701  255 255 255
66.0931 -0.701617 7.77169  255 255 255
66.1527 -0.701328 7.71258  255 255 255
-57.9783 43.2139 -58.2796  255 255 255
-53.8461 43.6972 -61.4843  255 255 255
-0.116863 -3.848 37.4906  255 255 255
-58.3535 43.5255 -59.5525  255 255 255
2.33675 -4.3297 37.4616  255 255 255
63.643 1.16739 2.75855  255 255 255
-60.326 43.0466 -58.3134  255 255 255
-41.5992 44.6451 -69.3806  255 255 255
-58.906 43.2029 -59.442  255 255 255
75.3832 -9.81928 26.3412  255 255 255
-74.369 41.8699 -50.3413  255 255 255
-4.03387 47.9308 -91.4532  255 255 255
-3.93398 47.996 -91.7367  255 255 255
-9.18351 -1.96068 34.9183  255 255 255
-9.13204 -1.93343 34.8163  255 255 255
-10.2261 -1.51122 34.004  255 255 255
70.8874 -5.34534 16.1246  255 255 255
70.871 -5.36966 16.153  255 255 255
-49.4782 43.9006 -65.3719  255 255 255
-2.15997 -3.90056 37.0438  255 255 255
-5.31575 -3.50502 36.9736  255 255 255
-3.03254 -3.9612 37.411  255 255 255
-14.7508 1.10334 28.5148  255 255 255
-26.6384 45.4728 -78.8092  255 255 255
-26.6384 45.4728 -78.8092  255 255 255
-4.92931 -3.60774 36.701  255 255 255
-5.24699 -3.76408 37.2158  255 255 255
-5.83399 -3.77026 37.0205  255 255 255
-26.2943 45.1806 -79.0583  255 255 255
63.5179 0.468793 1.78793  255 255 255
-10.3504 -2.41182 34.6291  255 255 255
-10.3454 -2.41106 34.627  255 255 255
-28.1792 44.7856 -78.2835  255 255 255
63.3362 0.377128 1.41916  255 255 255
70.4891 -6.15401 15.5251  255 255 255
62.6872 0.857117 0.189808  255 255 255
-13.9412 -0.707001 30.8869  255 255 255
-59.9596 41.772 -59.8214  255 255 255
-41.4911 43.228 -70.5691  255 255 255
-17.7282 2.42732 24.0959  255 255 255
-42.2382 43.1215 -70.1117  255 255 255
-7.02266 -4.23515 37.0526  255 255 255
-65.2986 41.1597 -57.0484  255 255 255
-4.22946 -5.08263 38.0743  255 255 255
67.05 -3.42054 8.20737  255 255 255
-57.7495 41.4889 -61.0883  255 255 255
-5.52043 -4.93707 37.7411  255 255 255
-61.0268 41.1814 -59.3515  255 255 255
-60.9867 41.4436 -59.9517  255 255 255
-5.07125 -5.27885 38.0326  255 255 255
-24.6603 44.0155 -81.3853  255 255 255
-14.2298 -1.43403 31.3031  255 255 255
60.0113 2.51008 -5.98443  255 255 255
60.945 1.56426 -4.0502  255 255 255
71.3847 -7.68977 16.3798  255 255 255
71.3847 -7.68977 16.3798  255 255 255
4.16149 -6.71107 38.1097  255 255 255
-17.2044 0.795232 26.3853  255 255 255
62.3546 0.174745 -1.40295  255 255 255
60.4564 1.79582 -5.39124  255 255 255
66.3146 -3.55406 6.40337  255 255 255
66.3124 -3.55535 6.40535  255 255 255
73.7577 -7.95428 15.2333  255 255 255
-57.4815 40.7856 -61.7312  255 255 255
-8.44208 -4.79397 36.9247  255 255 255
63.5961 -1.15308 0.849241  255 255 255
66.5537 -3.84897 6.69138  255 255 255
66.5738 -3.85673 6.71334  255 255 255
-65.8499 40.1379 -57.2451  255 255 255
-66.4593 40.0177 -56.8691  255 255 255
21.5144 38.3944 -87.208  255 255 255
58.2984 3.45122 -9.90033  255 255 255
67.1651 -4.49734 7.69924  255 255 255
-15.2635 -1.81969 30.8086  255 255 255
-15.0771 -2.00452 31.275  255 255 255
-17.9765 0.365623 26.0069  255 255 255
-14.7362 -2.71121 31.9447  255 255 255
-4.69882 -6.82437 38.6628  255 255 255
62.7156 -1.23458 -1.73021  255 255 255
72.489 -9.90323 17.3684  255 255 255
-17.5689 -0.861098 27.8122  255 255 255
-33.5357 41.5237 -77.3484  255 255 255
-27.0766 41.8633 -81.0732  255 255 255
71.1471 -8.96256 14.6027  255 255 255
-7.19926 -6.61133 38.1323  255 255 255
-7.77344 -6.43567 37.7445  255 255 255
-34.1738 40.9103 -77.3096  255 255 255
-5.85157 -7.08367 38.5553  255 255 255
5.3847 -8.6282 38.2389  255 255 255
66.782 -5.56939 6.14181  255 255 255
66.0527 -4.61127 3.72678  255 255 255
66.0527 -4.61127 3.72678  255 255 255
-65.8781 38.4537 -58.0848  255 255 255
-62.3644 38.6082 -60.0128  255 255 255
69.6838 -8.16735 11.5219  255 255 255
69.6838 -8.16735 11.5219  255 255 255
59.9592 0.350132 -7.89434  255 255 255
-9.94002 -6.15655 36.9964  255 255 255
-9.92176 -6.16393 36.9708  255 255 255
57.9002 1.96623 -11.6787  255 255 255
59.3513 0.763701 -9.01406  255 255 255
-11.2835 -5.77964 36.1114  255 255 255
3.19483 -9.12709 39.1874  255 255 255
57.8419 1.95115 -12.2067  255 255 255
66.6909 -7.44002 9.34421  255 255 255
68.8607 -7.90059 9.67142  255 255 255
66.6317 -6.18482 5.22339  255 255 255
-55.9501 38.3048 -64.7628  255 255 255
-41.1839 39.3629 -73.8023  255 255 255
69.5365 -9.06116 11.3809  255 255 255
-32.313 39.899 -79.3964  255 255 255
-32.3779 39.9202 -79.3917  255 255 255
-4.16563 -8.45978 39.2797  255 255 255
-49.2464 39.1053 -70.4678  255 255 255
67.2541 -7.11287 6.55808  255 255 255
68.816 -8.68417 10.1572  255 255 255
68.6037 -8.49159 8.94093  255 255 255
70.4482 -9.95925 12.1726  255 255 255
-70.4628 36.8585 -56.4385  255 255 255
-18.1987 -2.8 28.8091  255 255 255
-67.9391 37.0441 -58.1227  255 255 255
68.5647 -8.51754 8.49083  255 255 255
-64.7596 36.9206 -59.5309  255 255 255
60.5691 -1.61961 -7.8708  255 255 255
60.5691 -1.61961 -7.8708  255 255 255
-61.1552 36.8887 -62.0345  255 255 255
61.9399 -2.86538 -5.11448  255 255 255
-8.14696 -8.26727 38.2947  255 255 255
9.53298 -10.5192 37.0704  255 255 255
-3.79726 -9.50839 39.6403  255 255 255
60.921 -2.30286 -7.44138  255 255 255
-60.1785 36.9062 -63.7541  255 255 255
-60.2015 36.725 -63.3346  255 255 255
58.919 -0.78421 -11.2959  255 255 255
-8.44706 -8.49324 38.3111  255 255 255
-66.1517 36.2592 -59.6226  255 255 255
-34.5024 38.079 -79.2396  255 255 255
11.1198 29.7924 -76.1251  255 255 255
11.1478 29.8231 -76.2094  255 255 255
-8.76419 -8.6246 38.3466  255 255 255
66.0215 -7.13075 2.55628  255 255 255
-54.7791 36.3919 -66.0856  255 255 255
-54.7791 36.3919 -66.0856  255 255 255
-31.2345 38.0655 -81.5026  255 255 255
8.48852 29.897 -76.385  255 255 255
-1.81245 -10.4931 39.8005  255 255 255
-1.81245 -10.4931 39.8005  255 255 255
74.5279 -11.4399 9.40276  255 255 255
-16.206 -6.06541 32.7748  255 255 255
-19.4846 -3.96787 28.0831  255 255 255
-60.1743 35.4711 -64.391  255 255 255
-60.1743 35.4711 -64.391  255 255 255
59.991 -2.87317 -10.2873  255 255 255
-59.4111 35.4588 -64.8855  255 255 255
-13.0022 -8.04232 36.1355  255 255 255
59.9542 -3.08035 -10.7764  255 255 255
67.5116 -9.6782 4.63272  255 255 255
62.6486 -5.39474 -5.56114  255 255 255
-14.2853 -7.69621 35.0404  255 255 255
69.3323 -11.5398 8.23583  255 255 255
-14.0049 -8.0848 35.3438  255 255 255
-14.0031 -8.08541 35.3475  255 255 255
-11.1673 -9.24549 37.3279  255 255 255
-57.8454 34.791 -66.4248  255 255 255
-21.5453 -2.47109 22.571  255 255 255
-16.8686 -6.80939 32.6155  255 255 255
-16.8695 -6.80955 32.6173  255 255 255
-5.40088 -11.062 39.5768  255 255 255
68.8217 -11.2788 6.54749  255 255 255
-12.3133 -9.05982 36.6921  255 255 255
-18.1489 -5.49448 29.2001  255 255 255
-18.1489 -5.49448 29.2001  255 255 255
-18.896 -5.81193 30.0985  255 255 255
-5.25088 -11.3198 39.7015  255 255 255
69.1063 -11.8919 7.26298  255 255 255
69.1063 -11.8919 7.26298  255 255 255
-14.0433 -8.71483 35.6567  255 255 255
6.36935 -13.1089 38.9438  255 255 255
-10.0116 -10.2173 38.0557  255 255 255
-10.0116 -10.2173 38.0557  255 255 255
-9.40615 -10.4827 38.3725  255 255 255
-6.27599 -11.5067 39.4678  255 255 255
-8.20121 -11.0268 38.8533  255 255 255
62.212 -6.38993 -7.0494  255 255 255
-17.993 -7.04841 31.5139  255 255 255
-14.2784 -9.09753 35.5171  255 255 255
-14.2849 -9.08961 35.531  255 255 255
-14.2775 -9.09805 35.5024  255 255 255
61.3441 -6.00767 -9.05368  255 255 255
-3.99963 -12.4716 40.0098  255 255 255
69.2333 -12.9176 6.96656  255 255 255
69.0885 -12.8387 6.48584  255 255 255
71.4187 -14.8213 10.7158  255 255 255
72.6524 -14.5996 9.57612  255 255 255
6.31079 -14.0098 39.0405  255 255 255
6.31079 -14.0098 39.0405  255 255 255
6.91606 -14.1266 38.7685  255 255 255
62.1395 -7.15381 -7.91609  255 255 255
70.1295 -14.3341 8.88521  255 255 255
76.2312 -19.9368 22.295  255 255 255
-14.1526 -9.77432 35.5419  255 255 255
62.3583 -7.6366 -7.50332  255 255 255
-29.1759 31.4212 -78.4329  255 255 255
-20.8729 3.11497 0.76814  255 255 255
7.21829 -14.4132 38.6376  255 255 255
70.6131 -14.8091 9.30528  255 255 255
-7.12184 -12.3683 39.376  255 255 255
-11.7753 -10.9934 37.4053  255 255 255
72.4813 -16.039 11.8269  255 255 255
-65.084 32.1322 -63.639  255 255 255
66.1819 -11.2618 0.297231  255 255 255
-22.7574 -1.27916 13.3105  255 255 255
-14.7047 -10.113 35.4454  255 255 255
-12.2358 -11.1789 37.2095  255 255 255
-43.0775 32.6641 -77.6395  255 255 255
-18.26 -8.48175 31.915  255 255 255
-12.7304 -11.1738 36.959  255 255 255
6.94707 -15.0389 38.6856  255 255 255
-5.75494 -13.3222 39.7903  255 255 255
-24.6862 2.1822 2.51314  255 255 255
-24.2486 -1.71766 13.9341  255 255 255
-13.0432 -11.2124 36.762  255 255 255
73.6285 -18.4333 15.0451  255 255 255
-13.265 -11.1918 36.5861  255 255 255
-14.479 -10.7313 35.647  255 255 255
71.2497 -16.2715 9.2134  255 255 255
71.2497 -16.2715 9.2134  255 255 255
73.9332 -18.5208 14.4609  255 255 255
-9.80011 -12.7458 38.5356  255 255 255
1.02833 -15.0108 39.9528  255 255 255
68.3227 -14.1457 2.95628  255 255 255
-13.9061 -11.4062 36.2651  255 255 255
69.8884 -15.4835 5.98514  255 255 255
-0.136208 -15.2963 40.2142  255 255 255
-0.136208 -15.2963 40.2142  255 255 255
-9.11665 -13.4268 38.8397  255 255 255
64.7766 -11.4641 -4.98625  255 255 255
-13.6384 -11.9011 36.4699  255 255 255
-6.33717 -14.2434 39.6167  255 255 255
-24.1021 -3.61762 16.359  255 255 255
-5.78048 -14.3912 39.7745  255 255 255
-11.7347 -12.7879 37.7264  255 255 255
4.83321 -16.2263 39.3686  255 255 255
65.7849 -12.9698 -2.09645  255 255 255
-4.39366 -14.8944 40.0301  255 255 255
-44.3718 29.8493 -76.6535  255 255 255
-8.11941 -14.2795 39.2602  255 255 255
70.8987 -17.5269 7.77517  255 255 255
-6.4627 -14.7137 39.6701  255 255 255
66.923 -14.2456 -0.387592  255 255 255
-25.4401 -4.08173 16.8505  255 255 255
-11.5722 -13.3332 37.8234  255 255 255
68.313 -15.5735 2.47151  255 255 255
71.3273 -17.9645 7.76284  255 255 255
69.2475 -16.6139 4.31537  255 255 255
74.3576 -20.6189 13.8802  255 255 255
2.48657 -16.598 39.7454  255 255 255
-3.82552 -15.6825 40.0319  255 255 255
70.2862 -17.5454 5.92675  255 255 255
66.1698 -14.269 -1.94302  255 255 255
65.5103 -13.7746 -3.43648  255 255 255
-28.8655 -0.987885 7.1054  255 255 255
-24.6163 -5.18797 17.9328  255 255 255
70.0414 -17.6127 5.64841  255 255 255
-13.3575 -13.275 36.8289  255 255 255
-4.98676 -15.7459 39.8999  255 255 255
-3.68537 -16.1119 40.0067  255 255 255
1.79751 -17.1008 39.9112  255 255 255
7.4455 -17.6273 38.3843  255 255 255
-25.2014 -5.818 18.9064  255 255 255
71.5515 -19.3003 8.10932  255 255 255
-27.6174 -2.38255 8.92283  255 255 255
-64.0063 27.5236 -66.4676  255 255 255
-25.1888 -6.09594 18.815  255 255 255
65.7559 -14.8815 -3.51675  255 255 255
-9.46958 -15.0286 37.9481  255 255 255
-55.1068 27.648 -72.4546  255 255 255
26.933 -18.4973 28.5981  255 255 255
-0.188007 -17.4475 39.8086  255 255 255
-31.3009 20.4125 -64.3457  255 255 255
-27.6481 -3.681 10.5051  255 255 255
67.9416 -17.3264 -0.0129334  255 255 255
-23.0007 -9.00353 24.7724  255 255 255
66.9083 -16.4889 -2.03578  255 255 255
67.0024 -16.4841 -2.12873  255 255 255
-18.8334 -12.0709 32.2053  255 255 255
-18.8535 -12.0573 32.2054  255 255 255
-4.14494 -17.1412 39.8426  255 255 255
68.0673 -18.0032 0.245151  255 255 255
-20.6045 -11.5604 30.0036  255 255 255
-17.678 -13.0422 33.0456  255 255 255
-10.1971 -16.0448 38.4307  255 255 255
23.9951 -19.9814 30.9777  255 255 255
-5.5335 -17.3841 39.6389  255 255 255
69.0579 -19.3209 1.5076  255 255 255
69.0878 -19.3192 1.43965  255 255 255
66.3073 -17.2858 -4.03249  255 255 255
65.8047 -17.1891 -5.28544  255 255 255
66.3195 -17.6429 -3.8814  255 255 255
68.059 -18.978 -0.852163  255 255 255
67.9711 -18.9615 -0.761844  255 255 255
74.4412 -24.1253 12.206  255 255 255
-20.9667 -11.9259 28.6494  255 255 255
8.2347 -19.9304 37.4779  255 255 255
-31.8221 -5.33025 13.1186  255 255 255
-18.4406 -13.8017 32.856  255 255 255
-18.4139 -13.809 32.8244  255 255 255
5.44767 -19.8505 38.3433  255 255 255
-10.4709 -16.9305 38.1691  255 255 255
-9.02234 -17.4788 38.665  255 255 255
-25.8953 -10.2413 24.7761  255 255 255
-18.0875 -14.211 33.1732  255 255 255
65.9749 -17.8119 -5.97959  255 255 255
70.961 -21.8701 4.46778  255 255 255
-6.97916 -18.0762 39.155  255 255 255
-2.98647 -18.9032 39.5137  255 255 255
-16.6213 -15.1818 34.5043  255 255 255
4.29105 -20.2633 38.6569  255 255 255
-16.8065 -15.1773 34.3744  255 255 255
66.344 -19.2003 -5.03871  255 255 255
-13.9317 -16.6181 36.3878  255 255 255
-30.6716 -7.41723 15.0994  255 255 255
-18.6563 -14.9023 32.5841  255 255 255
-18.6563 -14.9023 32.5841  255 255 255
-11.7006 -17.726 37.4826  255 255 255
-27.1631 -10.9101 23.8136  255 255 255
72.7035 -24.9601 7.93593  255 255 255
-0.653667 -20.3758 38.7948  255 255 255
-10.326 -18.4318 38.0225  255 255 255
-3.37549 -20.0752 39.1858  255 255 255
-2.82249 -19.9351 38.3845  255 255 255
67.1302 -20.9153 -4.30187  255 255 255
-15.3628 -17.0033 35.3445  255 255 255
-3.24489 -20.4553 39.0545  255 255 255
-20.2438 -15.5462 31.891  255 255 255
-12.6266 -18.5094 36.8486  255 255 255
-15.6144 -17.5364 35.0476  255 255 255
-15.0864 -17.7276 35.3948  255 255 255
-6.74359 -20.5897 38.6443  255 255 255
-8.66235 -20.1411 38.2338  255 255 255
-8.4642 -20.2294 38.3147  255 255 255
65.6402 -21.0246 -9.47149  255 255 255
-20.5592 -16.5518 33.2183  255 255 255
65.3142 -21.0859 -9.60762  255 255 255
73.9965 -28.6733 10.9637  255 255 255
74.8639 -28.4676 9.05625  255 255 255
66.2439 -22.3593 -6.93016  255 255 255
-32.1892 -11.1538 20.0577  255 255 255
69.3072 -24.4109 -2.92306  255 255 255
-19.1018 -18.2259 35.167  255 255 255
-25.1499 -15.2965 28.075  255 255 255
73.9974 -28.8516 6.5391  255 255 255
-24.1615 -16.1173 29.956  255 255 255
-24.3628 -16.4624 30.0823  255 255 255
-24.2156 -16.4173 29.8069  255 255 255
-22.0378 -17.9282 33.9222  255 255 255
-12.062 -21.3172 39.0985  255 255 255
87.6832 -31.9464 4.62512  255 255 255
-21.8348 -18.2173 34.062  255 255 255
-22.0345 -18.2056 33.8751  255 255 255
-25.1036 -16.0905 28.4145  255 255 255
-32.9828 -10.88 13.8341  255 255 255
-15.1564 -21.2695 38.9376  255 255 255
12.3535 -27.2609 40.5959  255 255 255
-20.4362 -19.2815 35.0292  255 255 255
9.01685 -27.0806 40.643  255 255 255
-16.6785 -21.2355 37.8296  255 255 255
-16.6809 -21.2311 37.8407  255 255 255
-16.6889 -21.4883 37.8041  255 255 255
10.1147 -28.3058 42.4152  255 255 255
15.6907 -28.8293 39.5032  255 255 255
71.7797 -30.0964 0.680296  255 255 255
72.8993 -31.2587 3.38044  255 255 255
-15.7509 -22.2521 38.4144  255 255 255
-15.7215 -22.2561 38.3625  255 255 255
-15.7552 -22.2564 38.4145  255 255 255
-15.2976 -22.3137 38.5015  255 255 255
-30.141 -16.62 27.6158  255 255 255
-41.6312 3.73464 -44.3264  255 255 255
-29.3749 -16.9874 27.6294  255 255 255
-16.5372 -22.1787 37.7144  255 255 255
-31.985 -16.3073 25.9696  255 255 255
-35.3214 0.874707 -39.6864  255 255 255
-13.7925 -23.3142 38.8451  255 255 255
-2.09311 -26.1779 40.6639  255 255 255
-11.6535 -23.9594 39.3946  255 255 255
-42.8529 2.55622 -42.2817  255 255 255
-21.8689 -20.4535 33.3337  255 255 255
-21.8689 -20.4535 33.3337  255 255 255
