ply
format ascii 1.0
element vertex 1257
property float x
property float y
property float z
property uchar red
property uchar green
property uchar blue
end_header
-3.23753 -31.4532 43.4892  255 255 255
-24.2694 -34.6941 29.3495  255 255 255
-27.7053 -35.9622 24.6102  255 255 255
-14.724 -32.7928 38.0335  255 255 255
69.2429 -42.462 17.2189  255 255 255
-13.4514 -37.2481 35.3745  255 255 255
-47.7914 -42.8129 15.8547  255 255 255
53.1706 -45.0283 18.6109  255 255 255
17.1311 -40.4261 30.906  255 255 255
16.9747 -40.3016 31.2484  255 255 255
10.217 -39.9391 34.3614  255 255 255
9.93708 -40.4276 34.1848  255 255 255
72.979 -46.2227 23.0345  255 255 255
42.102 -46.8174 21.2191  255 255 255
40.2207 -46.9387 23.4971  255 255 255
0.301452 -41.6802 36.1839  255 255 255
0.940855 -42.3198 35.1  255 255 255
2.57775 -43.0705 34.2184  255 255 255
19.6874 -44.9944 32.0909  255 255 255
2.97122 -43.9771 33.604  255 255 255
64.2352 -49.151 26.1935  255 255 255
-7.16823 -43.7965 35.7255  255 255 255
60.9717 -50.1893 27.2313  255 255 255
76.7354 -50.7377 29.4353  255 255 255
60.3197 -50.6788 27.9788  255 255 255
60.3281 -50.7267 28.0155  255 255 255
35.8011 -50.6121 26.2751  255 255 255
66.6639 -51.2035 29.5927  255 255 255
68.548 -51.2622 29.876  255 255 255
61.7656 -51.3923 29.0872  255 255 255
56.8832 -51.3144 29.2938  255 255 255
-54.927 -50.3582 24.5833  255 255 255
64.3446 -52.2232 30.7283  255 255 255
-54.4149 -50.4616 25.7944  255 255 255
58.8975 -52.3724 30.4243  255 255 255
16.0523 -50.8105 30.8776  255 255 255
-16.3496 -49.5485 32.1072  255 255 255
58.1893 -52.9649 31.1666  255 255 255
34.8316 -53.242 29.6423  255 255 255
-13.5426 -50.8491 31.9875  255 255 255
55.7106 -53.7448 32.0804  255 255 255
-2.22597 -50.7782 35.0912  255 255 255
-0.160066 -52.0973 34.1621  255 255 255
-34.8266 -53.2758 29.9561  255 255 255
48.698 -54.8845 33.701  255 255 255
47.451 -55.5226 32.7327  255 255 255
70.4777 -55.5762 35.5658  255 255 255
48.4078 -55.8473 33.0167  255 255 255
62.0014 -55.6419 35.1179  255 255 255
26.3899 -55.746 32.7638  255 255 255
26.3527 -55.7083 32.822  255 255 255
-33.924 -54.8639 31.8956  255 255 255
-42.159 -54.9379 31.5778  255 255 255
-34.6819 -55.2206 32.2289  255 255 255
-28.8164 -55.9526 33.2617  255 255 255
-26.9054 -56.1945 34.0188  255 255 255
39.1413 -58.7814 36.8752  255 255 255
54.5623 -58.8585 38.6074  255 255 255
63.112 -58.9846 39.4082  255 255 255
53.8203 -59.4085 38.0494  255 255 255
34.073 -58.939 37.2997  255 255 255
68.0242 -59.2962 40.6939  255 255 255
-26.002 -57.6704 35.5461  255 255 255
56.472 -59.4887 40.1064  255 255 255
56.472 -59.4887 40.1064  255 255 255
-38.1285 -57.857 35.672  255 255 255
-20.8437 -58.2165 36.4577  255 255 255
-30.9756 -58.8007 36.9035  255 255 255
35.7812 -60.8785 39.0887  255 255 255
57.6114 -60.8949 42.0872  255 255 255
-45.6399 -59.6142 36.777  255 255 255
-25.2529 -59.5445 37.7068  255 255 255
-45.1258 -59.5375 37.3656  255 255 255
-41.1665 -59.6089 37.476  255 255 255
-22.7763 -59.833 37.8665  255 255 255
22.7477 -60.8189 39.7514  255 255 255
-26.5577 -60.2915 38.5603  255 255 255
-11.0956 -60.7456 39.3921  255 255 255
55.1593 -62.0268 43.5422  255 255 255
-10.755 -60.9152 39.3457  255 255 255
40.1346 -62.4022 42.5266  255 255 255
-8.56356 -60.9848 39.8998  255 255 255
-2.7306 -61.0318 40.9035  255 255 255
-18.5307 -61.0599 39.8444  255 255 255
-1.0738 -61.4586 40.2638  255 255 255
4.14305 -61.4962 40.9807  255 255 255
44.8241 -62.4881 43.5422  255 255 255
-10.9566 -61.092 41.0465  255 255 255
-3.29225 -61.5309 40.8736  255 255 255
-17.02 -61.1332 41.003  255 255 255
-16.9826 -61.4299 40.3671  255 255 255
7.03 -62.0674 41.0855  255 255 255
7.04976 -62.095 41.0023  255 255 255
51.9015 -62.7404 44.6458  255 255 255
2.96599 -62.057 40.9607  255 255 255
-8.01967 -61.8158 40.9797  255 255 255
1.57064 -61.9052 41.792  255 255 255
0.653382 -62.3613 40.9959  255 255 255
-11.87 -62.0121 40.9947  255 255 255
55.8915 -63.3962 45.4838  255 255 255
-20.2863 -61.8107 41.5689  255 255 255
-20.2863 -61.8107 41.5689  255 255 255
32.9896 -63.0765 43.9049  255 255 255
45.8928 -63.6381 45.1972  255 255 255
34.3815 -63.5887 44.8378  255 255 255
54.3846 -63.9716 46.2477  255 255 255
54.3846 -63.9716 46.2477  255 255 255
-20.9298 -62.8206 42.0481  255 255 255
-20.9282 -62.8397 42.0103  255 255 255
-19.3905 -62.8353 42.1503  255 255 255
-19.415 -62.5742 42.6782  255 255 255
48.5817 -64.6644 45.2672  255 255 255
24.7917 -63.7824 44.626  255 255 255
53.1204 -64.3057 46.5872  255 255 255
-7.19222 -63.1765 42.9093  255 255 255
-19.5283 -63.048 42.4467  255 255 255
62.7698 89.2777 -102.666  255 255 255
-84.6737 63.3724 -27.4083  255 255 255
6.72089 78.4892 -75.1357  255 255 255
6.79661 78.5837 -75.3962  255 255 255
73.7599 90.7438 -108.203  255 255 255
5.22114 78.093 -74.4501  255 255 255
-72.6587 64.8047 -33.472  255 255 255
44.7575 84.9693 -95.5475  255 255 255
1.31753 76.929 -72.8401  255 255 255
-166.093 98.7199 -141.791  255 255 255
-6.60157 74.6986 -70.043  255 255 255
61.065 59.4324 -15.2792  255 255 255
65.7684 87.4644 -106.301  255 255 255
-57.6669 66.2006 -44.0589  255 255 255
85.5396 90.6995 -115.539  255 255 255
20.0891 78.4362 -83.8179  255 255 255
80.7093 89.3168 -113.725  255 255 255
61.3509 58.7649 -16.2659  255 255 255
-13.476 72.4474 -67.1117  255 255 255
-13.4879 72.367 -67.1485  255 255 255
-14.8969 71.9196 -66.0462  255 255 255
75.8762 87.7646 -111.969  255 255 255
85.4495 89.338 -116.283  255 255 255
-61.0105 64.5232 -42.2679  255 255 255
62.6117 57.242 -14.2921  255 255 255
74.7338 86.3084 -112.363  255 255 255
37.6466 79.6075 -94.3275  255 255 255
73.3833 85.9472 -111.959  255 255 255
63.6262 56.1195 -11.3794  255 255 255
71.7667 85.3263 -111.191  255 255 255
-72.9018 60.6665 -33.9496  255 255 255
3.47088 73.3186 -76.7506  255 255 255
64.0863 55.3427 -10.3076  255 255 255
31.6908 78.128 -91.5215  255 255 255
58.0812 59.1911 -24.6806  255 255 255
56.0528 47.3578 15.1847  255 255 255
38.324 78.4389 -95.5686  255 255 255
71.7336 84.0278 -112.013  255 255 255
-99.0897 59.3013 -32.7343  255 255 255
56.2705 46.4899 15.3484  255 255 255
0.3978 71.0644 -76.4731  255 255 255
57.9346 45.3829 17.019  255 255 255
-57.0432 61.8198 -46.8239  255 255 255
-37.6911 63.9268 -55.7701  255 255 255
-37.5518 64.4312 -57.3239  255 255 255
-25.3675 66.1508 -63.5865  255 255 255
-26.7633 65.7556 -63.3458  255 255 255
81.6185 83.0343 -120.966  255 255 255
-73.1719 58.3787 -38.3935  255 255 255
60.3241 41.9553 22.9727  255 255 255
62.0063 53.1239 -17.875  255 255 255
21.1355 71.4034 -90.0079  255 255 255
-11.6351 65.8888 -72.8296  255 255 255
-127.6 69.7518 -83.935  255 255 255
-12.5759 65.131 -73.1045  255 255 255
-12.6002 65.135 -73.0686  255 255 255
-23.2236 63.0949 -67.5337  255 255 255
-11.8875 64.776 -73.4993  255 255 255
-60.2663 57.8999 -48.011  255 255 255
63.9053 50.2983 -14.2663  255 255 255
80.9136 81.2624 -133.323  255 255 255
-0.846823 65.5911 -80.3323  255 255 255
60.5882 40.389 21.8818  255 255 255
-18.9117 62.6129 -70.9157  255 255 255
3.00222 65.7869 -82.752  255 255 255
63.0677 38.3856 27.897  255 255 255
-0.314011 64.6862 -81.4625  255 255 255
64.7876 48.7741 -13.0746  255 255 255
-17.1077 62.0166 -72.3782  255 255 255
-17.1044 62.0302 -72.3731  255 255 255
58.1974 40.8353 15.7663  255 255 255
63.4299 37.8867 27.8923  255 255 255
60.7566 39.4082 21.4165  255 255 255
30.036 68.2782 -97.1532  255 255 255
45.013 70.3694 -104.924  255 255 255
64.1674 37.179 29.1971  255 255 255
-6.81814 62.54 -78.9168  255 255 255
-15.1694 61.2451 -74.7235  255 255 255
65.2356 73.1136 -116.07  255 255 255
63.8166 37.3691 28.0076  255 255 255
64.4632 36.2396 32.3517  255 255 255
64.4056 36.4262 30.3049  255 255 255
64.6648 35.885 32.7432  255 255 255
64.6648 35.885 32.7432  255 255 255
62.9567 37.5764 25.1549  255 255 255
65.0586 35.6784 31.0061  255 255 255
62.9221 47.8749 -20.3362  255 255 255
65.2168 35.4225 31.5926  255 255 255
-72.061 52.1299 -44.3746  255 255 255
65.8587 34.4444 34.5409  255 255 255
56.7359 69.3862 -113.85  255 255 255
63.4466 36.2305 25.7726  255 255 255
66.0793 33.9279 35.3338  255 255 255
63.8424 35.8874 26.9088  255 255 255
66.1245 34.3603 33.0646  255 255 255
57.1687 39.1337 11.8449  255 255 255
66.3496 33.8796 34.3759  255 255 255
-87.9045 49.2853 -36.0143  255 255 255
64.4796 34.8973 27.3193  255 255 255
59.8668 47.6409 -29.0414  255 255 255
66.3926 33.641 32.3776  255 255 255
58.9794 47.6762 -29.7284  255 255 255
59.0657 47.7066 -29.8337  255 255 255
58.9635 47.6657 -29.713  255 255 255
-126.255 60.8787 -89.5432  255 255 255
67.6641 32.3107 36.5065  255 255 255
-6.9164 57.6031 -83.3403  255 255 255
-55.6141 51.361 -55.2999  255 255 255
67.6815 32.1123 36.0183  255 255 255
67.9025 31.9687 36.9575  255 255 255
-57.2077 50.3611 -53.5092  255 255 255
61.1089 45.4312 -26.5093  255 255 255
67.538 31.9534 34.6833  255 255 255
68.5776 30.9864 37.6201  255 255 255
57.7846 46.4335 -34.7562  255 255 255
-7.58519 55.6881 -82.547  255 255 255
60.3529 34.8981 17.8155  255 255 255
-68.6782 48.2058 -49.4136  255 255 255
59.3812 44.9806 -30.7985  255 255 255
59.3624 44.9709 -30.7595  255 255 255
-26.2561 52.7305 -73.0287  255 255 255
-31.9391 52.1699 -70.9152  255 255 255
60.005 44.4651 -30.4759  255 255 255
57.3802 35.9401 9.34303  255 255 255
57.0719 35.8325 9.78774  255 255 255
-42.5669 50.3182 -64.6759  255 255 255
57.0624 45.4509 -36.7558  255 255 255
61.6645 43.2112 -25.8773  255 255 255
57.2635 35.347 9.99266  255 255 255
-44.7558 49.7596 -63.9255  255 255 255
57.5746 35.3829 8.42074  255 255 255
29.2668 58.1509 -105.324  255 255 255
57.7659 34.6049 10.6723  255 255 255
61.4094 32.9669 18.9022  255 255 255
59.6966 33.4991 14.7907  255 255 255
10.5601 54.6744 -96.2412  255 255 255
-80.9376 43.9949 -45.7216  255 255 255
-81.894 43.5672 -44.7949  255 255 255
60.5412 32.1826 15.6955  255 255 255
-59.7121 45.798 -59.39  255 255 255
69.1197 28.1092 35.8045  255 255 255
-86.6997 41.2945 -39.4295  255 255 255
61.1987 39.4807 -29.1331  255 255 255
-4.95301 49.4987 -89.7011  255 255 255
-50.2382 44.4297 -63.7647  255 255 255
61.661 38.8521 -28.4567  255 255 255
65.2365 28.7875 26.0234  255 255 255
66.1829 28.34 28.0758  255 255 255
-90.6708 40.2387 -41.1389  255 255 255
-90.6769 40.252 -41.1682  255 255 255
60.3784 30.3462 14.1718  255 255 255
-2.40073 48.7265 -92.0754  255 255 255
73.4296 52.0333 -102.954  255 255 255
-20.5208 44.5966 -72.4665  255 255 255
-6.51276 47.7215 -90.2136  255 255 255
62.7207 37.2023 -26.3663  255 255 255
-87.3661 39.7055 -43.4153  255 255 255
-87.3793 39.6899 -43.274  255 255 255
-140.892 52.1802 -107.333  255 255 255
-2.78041 47.9354 -93.0415  255 255 255
-42.2156 43.6257 -69.7086  255 255 255
63.2703 36.5694 -25.4586  255 255 255
60.0481 29.7102 12.6854  255 255 255
58.0889 38.9009 -39.7038  255 255 255
57.0803 30.6459 6.10234  255 255 255
57.0279 30.6297 6.16008  255 255 255
62.0672 36.7015 -30.4698  255 255 255
-5.0887 46.6636 -91.8648  255 255 255
63.7969 35.7668 -24.5297  255 255 255
-2.71937 46.443 -93.4308  255 255 255
-8.15215 45.7467 -90.765  255 255 255
61.1061 28.4057 15.1373  255 255 255
63.1539 27.4731 19.5756  255 255 255
66.1627 26.1882 26.485  255 255 255
66.1513 26.1594 26.4823  255 255 255
-7.59745 44.9607 -91.4323  255 255 255
-43.5046 40.9565 -70.3928  255 255 255
-41.8715 41.0621 -71.5081  255 255 255
-41.8322 40.9516 -70.9822  255 255 255
-136.644 46.7653 -100.417  255 255 255
-70.1483 38.1357 -55.6393  255 255 255
-35.8897 41.0326 -76.6058  255 255 255
-35.9139 41.0233 -76.5836  255 255 255
-63.0148 38.2999 -59.812  255 255 255
-43.3341 39.5794 -71.7042  255 255 255
-75.7332 35.6436 -51.1685  255 255 255
56.1836 27.9143 1.4557  255 255 255
-71.0403 36.573 -56.6147  255 255 255
-29.0683 39.0917 -81.7502  255 255 255
-56.8957 36.7307 -65.5442  255 255 255
67.767 23.0219 28.7889  255 255 255
-91.1665 33.9803 -45.246  255 255 255
-92.2102 33.7781 -45.5521  255 255 255
58.0297 26.0923 5.56497  255 255 255
58.0266 26.0916 5.56986  255 255 255
57.6885 26.1505 4.95986  255 255 255
68.3873 22.3637 30.054  255 255 255
-75.8055 34.5713 -55.7048  255 255 255
4.17583 38.7165 -88.069  255 255 255
58.474 25.6897 5.2565  255 255 255
-69.2718 34.7282 -59.583  255 255 255
61.1012 24.5752 12.2886  255 255 255
61.1708 24.5997 12.2137  255 255 255
-42.26 36.4875 -75.3466  255 255 255
57.2462 25.7487 2.98049  255 255 255
65.7572 38.8988 -86.8357  255 255 255
-86.4519 33.0409 -49.8704  255 255 255
68.1787 21.8752 28.3478  255 255 255
58.9309 31.6036 -41.594  255 255 255
-79.2713 33.5089 -58.5333  255 255 255
58.9926 24.2595 6.73415  255 255 255
-39.8037 34.7714 -77.0915  255 255 255
59.3772 29.546 -39.958  255 255 255
63.7686 28.3812 -31.4296  255 255 255
63.8414 28.4151 -31.605  255 255 255
66.6748 20.5937 25.1327  255 255 255
-7.83127 33.5103 -80.7164  255 255 255
-94.4788 29.7059 -47.1361  255 255 255
5.19579 33.1078 -80.1223  255 255 255
66.1849 20.3182 22.2641  255 255 255
-79.937 30.5413 -62.0398  255 255 255
59.2286 21.9706 6.28836  255 255 255
59.1812 27.5532 -42.1418  255 255 255
2.38469 30.4632 -76.6792  255 255 255
-69.5043 29.0498 -63.0111  255 255 255
68.4729 18.3732 28.9478  255 255 255
70.7306 17.7806 33.3013  255 255 255
64.4926 24.8587 -30.3668  255 255 255
-90.7205 27.2677 -50.7302  255 255 255
63.6024 24.9394 -32.1961  255 255 255
63.7635 24.9881 -32.3814  255 255 255
71.0307 17.3372 33.8643  255 255 255
-70.2061 28.1245 -63.8541  255 255 255
-91.3648 26.896 -53.3693  255 255 255
58.1272 20.0963 1.86967  255 255 255
66.4392 17.9179 22.1225  255 255 255
62.391 24.2706 -35.3373  255 255 255
-70.4409 27.227 -63.6807  255 255 255
-69.9798 27.2354 -65.0656  255 255 255
28.5414 27.8274 -73.7619  255 255 255
67.0885 17.5913 23.4794  255 255 255
-88.6418 25.2246 -54.2503  255 255 255
62.5619 17.8125 10.8429  255 255 255
62.1267 17.6825 10.303  255 255 255
5.6196 25.0995 -68.8787  255 255 255
59.6791 17.9712 5.68633  255 255 255
59.8848 18.0141 5.29618  255 255 255
59.9331 18.0393 5.2458  255 255 255
3.59283 24.8036 -69.5702  255 255 255
58.7251 18.1593 0.936192  255 255 255
-38.0181 24.3955 -68.7406  255 255 255
57.1678 18.1563 -2.56763  255 255 255
57.1164 18.116 -2.29585  255 255 255
-75.6177 24.271 -63.3977  255 255 255
66.6218 15.8892 21.2785  255 255 255
-88.8098 23.3491 -53.6191  255 255 255
60.2792 16.7549 4.81196  255 255 255
-86.1985 22.6188 -55.3433  255 255 255
66.6356 15.2849 20.7061  255 255 255
27.6667 22.9395 -67.2216  255 255 255
-41.593 22.2108 -66.4465  255 255 255
-85.6259 21.6375 -54.4518  255 255 255
-86.3651 21.9968 -57.4981  255 255 255
-74.4328 22.5204 -67.058  255 255 255
0.625804 21.6715 -65.9603  255 255 255
-13.6654 21.0472 -64.9673  255 255 255
-13.6842 21.0401 -65.0583  255 255 255
-35.5107 20.1715 -63.5412  255 255 255
71.8062 12.2997 32.9251  255 255 255
-8.87263 17.3627 -60.1901  255 255 255
-10.2058 16.9785 -59.706  255 255 255
-1.12411 16.4772 -58.9086  255 255 255
61.7281 12.3379 5.69962  255 255 255
-15.3091 16.2105 -59.4084  255 255 255
61.9748 11.5902 5.7699  255 255 255
-11.9343 15.1905 -57.5031  255 255 255
-11.9104 15.1679 -57.4496  255 255 255
-12.7157 14.9676 -57.106  255 255 255
59.0456 10.9861 -2.33363  255 255 255
59.0431 10.9909 -2.33361  255 255 255
60.7501 10.2875 1.79539  255 255 255
0.356468 8.30908 22.1222  255 255 255
59.6574 10.0527 -1.15121  255 255 255
72.5586 7.79517 31.1515  255 255 255
60.8923 8.87702 1.17756  255 255 255
70.8564 7.41748 27.7545  255 255 255
-58.4009 10.8723 -52.7178  255 255 255
65.807 7.51337 14.0458  255 255 255
-17.0996 10.1246 -50.7373  255 255 255
-17.0862 10.1335 -50.9557  255 255 255
66.047 6.97259 14.9825  255 255 255
-23.2671 9.23749 -49.8563  255 255 255
-25.8319 9.10003 -49.4185  255 255 255
5.79389 5.58156 24.2868  255 255 255
53.007 8.6997 -48.7663  255 255 255
55.7334 7.34026 -14.6163  255 255 255
70.9084 5.96935 25.6005  255 255 255
70.894 5.97025 25.6195  255 255 255
-44.6507 8.36521 -48.9478  255 255 255
73.5306 5.30569 32.1202  255 255 255
71.1425 5.45754 25.9895  255 255 255
67.0062 5.71968 16.6551  255 255 255
-26.5374 7.81619 -48.5085  255 255 255
-26.5237 7.75895 -47.8397  255 255 255
66.0379 5.63944 12.3792  255 255 255
64.1266 5.5396 7.44996  255 255 255
62.7474 5.46099 3.54886  255 255 255
6.63139 4.34037 24.6572  255 255 255
-36.1651 6.88433 -48.7522  255 255 255
-27.272 6.6551 -46.588  255 255 255
-28.4005 6.27237 -45.6616  255 255 255
66.0654 4.51262 11.6013  255 255 255
67.4759 4.41209 15.2046  255 255 255
-27.4193 5.82078 -45.582  255 255 255
-27.4702 5.83074 -45.5119  255 255 255
-42.3056 5.92801 -46.0919  255 255 255
65.9853 4.22111 10.7107  255 255 255
-51.2159 5.3891 -45.2416  255 255 255
71.977 3.51681 26.6369  255 255 255
66.5928 3.72885 12.2137  255 255 255
70.8792 3.44098 23.574  255 255 255
63.8728 3.80653 5.81441  255 255 255
68.0686 3.46101 16.4353  255 255 255
-41.1742 4.48186 -43.9786  255 255 255
-13.993 2.67977 27.2664  255 255 255
-13.9538 2.76127 26.5838  255 255 255
66.7875 3.2307 12.067  255 255 255
-27.727 4.26335 -43.4028  255 255 255
-27.7263 4.27769 -43.4438  255 255 255
68.197 2.99253 15.9046  255 255 255
-12.9607 2.51448 28.5467  255 255 255
68.9603 2.94351 17.9305  255 255 255
-78.3484 4.57563 -46.3071  255 255 255
67.3697 2.8368 14.3004  255 255 255
70.7765 2.67412 20.9363  255 255 255
65.0907 2.6938 7.91377  255 255 255
67.0595 2.50606 12.508  255 255 255
67.0595 2.50606 12.508  255 255 255
68.1603 2.3617 15.5233  255 255 255
-41.5254 3.22018 -41.8063  255 255 255
-42.6807 3.12173 -42.099  255 255 255
-15.5785 1.62566 27.4707  255 255 255
69.4634 1.62967 16.4208  255 255 255
68.8722 1.67837 17.2323  255 255 255
67.0414 1.6532 12.0037  255 255 255
67.0358 1.64306 12.001  255 255 255
73.5288 1.44859 29.3076  255 255 255
69.7792 1.4529 19.6265  255 255 255
-78.1833 2.68522 -42.8825  255 255 255
68.956 1.2646 16.7665  255 255 255
71.0341 1.02701 23.1913  255 255 255
71.0341 1.02701 23.1913  255 255 255
68.8233 1.02307 16.2518  255 255 255
68.8233 1.02307 16.2518  255 255 255
-50.1662 1.62272 -40.8775  255 255 255
66.0802 1.0642 8.95329  255 255 255
-42.8966 1.52999 -39.6368  255 255 255
68.6326 0.776362 15.6283  255 255 255
74.1021 0.55382 30.4666  255 255 255
66.3771 0.542092 9.84466  255 255 255
72.2946 0.382236 25.1962  255 255 255
72.8643 0.435777 26.3643  255 255 255
71.7981 0.347656 23.6859  255 255 255
69.6709 0.238021 18.194  255 255 255
-17.8313 0.0968522 26.8879  255 255 255
62.5696 0.184231 -0.73543  255 255 255
71.3183 0.0778725 22.4369  255 255 255
62.4448 -0.341415 -1.12561  255 255 255
62.4719 -0.336675 -1.18387  255 255 255
70.3131 -0.320121 19.2399  255 255 255
70.2655 -0.361251 19.3011  255 255 255
70.9913 -0.434089 21.3266  255 255 255
-7.6931 -0.544112 33.4688  255 255 255
11.9751 -0.757387 30.936  255 255 255
69.6294 -0.684922 17.1101  255 255 255
69.8897 -0.730474 18.2  255 255 255
71.052 -0.848939 20.5991  255 255 255
67.4919 -0.838337 11.2916  255 255 255
74.455 -1.01226 29.8258  255 255 255
70.6715 -1.20961 19.9423  255 255 255
-15.5243 -1.55413 30.4552  255 255 255
64.7229 -1.92457 2.465  255 255 255
69.6345 -1.73458 16.3295  255 255 255
73.3252 -1.76278 25.9324  255 255 255
72.4847 -1.78323 27.1569  255 255 255
67.458 -2.04388 11.9999  255 255 255
71.2874 -2.13947 20.2542  255 255 255
71.2874 -2.13947 20.2542  255 255 255
68.5378 -2.36108 13.5056  255 255 255
-16.0603 -2.1664 30.6214  255 255 255
-20.427 -2.416 25.397  255 255 255
69.2638 -2.95567 15.1347  255 255 255
69.2549 -2.95275 15.1455  255 255 255
56.9505 -3.64073 -17.9044  255 255 255
57.1845 -3.67007 -18.2334  255 255 255
-47.5661 -3.54022 -33.9192  255 255 255
70.7327 -3.20637 17.848  255 255 255
70.7327 -3.20637 17.848  255 255 255
56.6812 -4.20443 -19.5821  255 255 255
63.4347 -3.90336 -1.99133  255 255 255
70.7459 -4.04312 17.6597  255 255 255
70.7207 -4.04368 17.6809  255 255 255
-18.2413 -3.56704 29.3621  255 255 255
-17.5107 -3.67832 30.0409  255 255 255
-15.7863 -3.73161 31.9517  255 255 255
-73.1747 -4.99244 -33.1159  255 255 255
75.241 -4.8168 29.5177  255 255 255
59.9512 -6.14235 -12.9417  255 255 255
70.4962 -5.24728 17.4947  255 255 255
-2.08444 -4.51749 37.7982  255 255 255
-72.881 -6.1382 -31.4659  255 255 255
71.1869 -5.51251 17.4914  255 255 255
72.3186 -5.56271 21.3833  255 255 255
55.7628 -7.27437 -25.1946  255 255 255
71.422 -6.09532 18.1447  255 255 255
72.4067 -6.19714 21.2303  255 255 255
72.1286 -6.31937 20.2157  255 255 255
-31.001 -6.23128 13.7627  255 255 255
-19.0119 -5.73235 29.9433  255 255 255
68.5102 -6.98357 9.72912  255 255 255
-76.2262 -7.69089 -30.1263  255 255 255
60.7062 -8.11555 -12.7935  255 255 255
68.3102 -7.27298 8.95893  255 255 255
74.059 -6.60696 24.7157  255 255 255
56.8703 -8.61355 -23.0207  255 255 255
-74.5657 -7.94535 -28.487  255 255 255
-22.6284 -6.2752 24.3888  255 255 255
3.94199 -5.97028 37.7218  255 255 255
72.273 -7.25498 19.61  255 255 255
72.637 -7.32664 21.8925  255 255 255
75.0121 -7.22803 27.5635  255 255 255
75.0457 -7.22307 27.5655  255 255 255
67.0529 -8.40291 4.24924  255 255 255
71.0009 -7.80919 15.6749  255 255 255
72.3078 -7.65562 20.5589  255 255 255
-93.1135 -8.8002 -27.5445  255 255 255
-93.4392 -8.87277 -28.6373  255 255 255
55.5399 -9.97705 -25.447  255 255 255
67.8853 -8.63623 6.57171  255 255 255
73.5214 -7.87033 23.4579  255 255 255
-33.6552 -7.77776 14.9952  255 255 255
69.1137 -8.64745 10.3863  255 255 255
62.3712 -9.72559 -8.86367  255 255 255
62.3712 -9.72559 -8.86367  255 255 255
-25.4004 -7.76048 21.778  255 255 255
6.2441 -7.35094 37.6008  255 255 255
73.8798 -8.53142 23.2559  255 255 255
57.5967 -11.3667 -23.1684  255 255 255
-124.808 -10.1302 -26.9135  255 255 255
73.5557 -9.09967 22.2273  255 255 255
-3.33492 -7.71572 39.1469  255 255 255
-3.33803 -7.70635 39.1501  255 255 255
74.7772 -9.10237 25.7025  255 255 255
74.2307 -9.15119 24.0232  255 255 255
60.5527 -11.5946 -15.0956  255 255 255
73.8232 -9.50509 22.7715  255 255 255
62.1488 -11.7038 -10.2551  255 255 255
67.1037 -11.0412 2.51288  255 255 255
5.74764 -8.73649 38.1917  255 255 255
69.8215 -11.2745 9.99698  255 255 255
-26.2584 -9.81676 24.3268  255 255 255
65.9533 -12.3572 -1.66933  255 255 255
74.7456 -10.7463 24.6679  255 255 255
65.7753 -12.9543 -3.00432  255 255 255
66.9591 -12.6416 1.268  255 255 255
67.0422 -12.6375 1.17744  255 255 255
75.7573 -11.2652 26.9939  255 255 255
59.7341 -14.5364 -18.2807  255 255 255
59.7341 -14.5364 -18.2807  255 255 255
67.1614 -13.0865 1.2838  255 255 255
-58.6945 -13.6353 -21.0736  255 255 255
67.952 -13.5155 2.87263  255 255 255
67.9513 -13.5142 2.88112  255 255 255
65.4317 -14.0981 -4.04022  255 255 255
-10.573 -10.2802 38.3701  255 255 255
76.3186 -11.8555 27.7611  255 255 255
-14.4714 -10.5777 35.6877  255 255 255
76.0928 -11.9921 27.2318  255 255 255
63.2381 -15.0242 -10.7015  255 255 255
69.7938 -13.8157 8.89694  255 255 255
76.0064 -12.3334 26.773  255 255 255
-83.9962 -14.6604 -21.5408  255 255 255
75.8368 -12.544 25.669  255 255 255
-84.7343 -14.8791 -22.0553  255 255 255
-10.7316 -10.8963 37.9101  255 255 255
-24.2459 -11.7207 27.1958  255 255 255
69.1843 -14.443 6.24769  255 255 255
69.2215 -14.4344 6.26841  255 255 255
76.0645 -12.7926 27.6853  255 255 255
63.6618 -15.6293 -10.0401  255 255 255
60.9175 -16.6626 -17.1417  255 255 255
-45.4401 -15.7496 -18.3401  255 255 255
6.24405 -11.6968 38.7763  255 255 255
-17.1622 -12.0082 33.9594  255 255 255
-61.1872 -16.1999 -17.7924  255 255 255
70.2088 -15.6081 7.63034  255 255 255
61.7704 -17.9897 -15.5352  255 255 255
-59.0535 -16.9256 -17.1157  255 255 255
11.7315 -12.7914 36.4584  255 255 255
-19.8399 -13.3646 31.137  255 255 255
68.6538 -17.3163 2.03264  255 255 255
70.0622 -16.8874 6.53864  255 255 255
70.0622 -16.8874 6.53864  255 255 255
68.8564 -17.3941 2.96466  255 255 255
-0.884127 -12.9995 40.3104  255 255 255
-59.2752 -17.9156 -15.0286  255 255 255
-59.3707 -17.9528 -15.5736  255 255 255
67.8474 -17.8154 -0.739937  255 255 255
-25.4982 -14.3995 28.2236  255 255 255
-71.7385 -18.4823 -15.2913  255 255 255
-12.9621 -13.9526 37.1606  255 255 255
-28.1052 -15.2161 25.9224  255 255 255
-54.2352 -19.5947 -13.3761  255 255 255
-27.6778 -15.6378 26.3301  255 255 255
-70.9897 -19.5594 -14.1309  255 255 255
11.9059 -15.1532 35.5031  255 255 255
69.9844 -20.0183 4.17143  255 255 255
71.3705 -19.7005 8.20382  255 255 255
0.272552 -15.1814 40.1327  255 255 255
-66.9014 -21.3752 -11.822  255 255 255
71.069 -21.5496 5.34488  255 255 255
76.857 -19.3948 25.4577  255 255 255
-5.25663 -16.5161 39.8072  255 255 255
-68.3001 -22.3999 -10.5246  255 255 255
6.82658 -17.0446 38.7237  255 255 255
-4.01639 -16.8075 39.7583  255 255 255
-22.1942 -17.3742 33.8818  255 255 255
7.33661 -17.2795 38.4286  255 255 255
70.594 -23.0385 3.09418  255 255 255
70.5977 -23.0328 3.07915  255 255 255
-8.86823 -17.9621 38.6339  255 255 255
24.3689 -19.6358 30.4307  255 255 255
-11.4537 -18.2721 37.5503  255 255 255
-11.4628 -18.266 37.6063  255 255 255
-17.8668 -18.6118 35.7628  255 255 255
-17.8668 -18.6118 35.7628  255 255 255
70.5758 -24.614 2.58674  255 255 255
53.6427 -25.9094 -5.22959  255 255 255
-17.7334 -18.9852 36.3312  255 255 255
72.9496 -24.534 8.12507  255 255 255
72.4208 -24.853 7.80034  255 255 255
72.4411 -24.8528 7.76365  255 255 255
70.6061 -25.5662 3.4713  255 255 255
56.2308 -26.7102 -3.81172  255 255 255
-23.1809 -20.2223 32.5143  255 255 255
52.8431 -26.9414 -4.39261  255 255 255
12.0375 -20.5978 37.8583  255 255 255
68.6412 -27.8549 -2.89895  255 255 255
-22.2812 -21.0173 33.4348  255 255 255
72.4142 -26.9546 6.87867  255 255 255
-51.2365 -26.9805 -4.05785  255 255 255
-9.2121 -21.0364 38.4791  255 255 255
53.3816 -28.7805 -1.52444  255 255 255
53.3798 -28.7657 -1.55916  255 255 255
-24.8005 -22.1643 34.4439  255 255 255
53.8808 -29.5109 -0.840493  255 255 255
53.8808 -29.5109 -0.840493  255 255 255
74.5083 -28.2164 9.97079  255 255 255
74.8732 -28.2405 9.69516  255 255 255
-9.14871 -22.2456 40.4211  255 255 255
-26.3928 -23.5748 34.241  255 255 255
9.14533 -23.2313 39.4129  255 255 255
77.3817 -28.5362 18.5039  255 255 255
-16.1859 -23.9269 37.4833  255 255 255
-16.1859 -23.9269 37.4833  255 255 255
-22.8713 -24.3072 37.1622  255 255 255
-27.8516 -25.5946 31.1134  255 255 255
78.3595 -30.2722 19.1688  255 255 255
79.3578 -29.7176 23.5783  255 255 255
17.3123 -25.6271 38.4144  255 255 255
18.5536 -25.6588 38.7465  255 255 255
-14.6385 -25.1568 38.6374  255 255 255
-16.9237 -25.3767 38.897  255 255 255
-12.7766 -25.5609 38.9357  255 255 255
64.1691 -34.2999 5.67331  255 255 255
10.1358 -26.4768 39.8159  255 255 255
78.1016 -32.7043 17.3896  255 255 255
77.4331 -32.5272 18.3691  255 255 255
-17.0512 -26.1366 39.4108  255 255 255
79.9926 -32.5508 22.0807  255 255 255
79.1592 -32.199 24.1139  255 255 255
-11.9607 -27.0101 40.7238  255 255 255
-22.8591 -28.6955 34.327  255 255 255
12.8318 -27.8883 41.2858  255 255 255
3.33358 -27.7885 41.4785  255 255 255
-19.3208 -27.8681 41.7536  255 255 255
-7.8259 -28.3715 42.3998  255 255 255
-7.84513 -28.358 42.4396  255 255 255
61.9423 -37.8568 10.3359  255 255 255
-66.3584 -36.3842 6.5568  255 255 255
-50.5258 -36.4666 7.1624  255 255 255
7.75921 -29.2265 43.3026  255 255 255
-49.443 -36.7375 8.11251  255 255 255
-12.3504 -30.1133 41.66  255 255 255
6.0871 -30.0099 44.3491  255 255 255
6.09334 -30.0256 44.3206  255 255 255
-66.2161 -37.4877 8.325  255 255 255
-48.9745 -37.4537 8.99168  255 255 255
-50.9517 -37.7978 8.87132  255 255 255
-2.83723 -30.2976 44.043  255 255 255
50.2895 -39.4517 12.2933  255 255 255
-13.8888 -31.765 39.4713  255 255 255
-23.2949 -34.3546 30.2469  255 255 255
-1.00644 -32.7031 42.1851  255 255 255
16.5284 -35.8931 33.2552  255 255 255
-46.1036 -40.0534 12.9105  255 255 255
-23.2891 -36.1659 29.3798  255 255 255
56.7492 -42.0897 15.156  255 255 255
12.0722 -36.7069 35.2044  255 255 255
3.0469 -35.8195 39.8131  255 255 255
-40.8763 -41.5678 16.7871  255 255 255
69.9372 -44.2231 19.7439  255 255 255
0.0755905 -39.2482 37.7397  255 255 255
0.591833 -39.5787 37.3365  255 255 255
0.553645 -39.5493 37.4913  255 255 255
-0.0605699 -40.1198 37.0279  255 255 255
-0.0950793 -40.0514 37.2417  255 255 255
-18.6375 -41.4009 31.8297  255 255 255
4.55834 -40.9815 35.5349  255 255 255
4.81454 -42.3648 34.5947  255 255 255
-9.13715 -42.5599 33.7396  255 255 255
61.1024 -50.9774 28.3928  255 255 255
-16.4724 -45.7101 35.1807  255 255 255
36.258 -51.0818 26.7693  255 255 255
34.2867 -51.4923 27.4095  255 255 255
34.1416 -51.3557 27.7302  255 255 255
34.839 -51.5719 27.3226  255 255 255
49.8514 -52.2528 29.1375  255 255 255
-40.4452 -50.9127 26.5381  255 255 255
-16.7306 -49.8571 31.9516  255 255 255
48.3543 -53.2998 29.6387  255 255 255
30.5335 -52.8627 28.9443  255 255 255
66.155 -53.3951 31.9748  255 255 255
-28.8413 -51.4586 29.6098  255 255 255
41.6637 -53.8447 30.2599  255 255 255
32.4505 -53.968 30.675  255 255 255
49.6843 -54.3767 32.1151  255 255 255
-6.73749 -51.8837 34.4784  255 255 255
69.1085 -55.2702 35.5108  255 255 255
29.0355 -55.0185 33.3509  255 255 255
60.7278 -55.7248 35.4567  255 255 255
39.6329 -58.8676 36.9345  255 255 255
28.3624 -58.755 36.9139  255 255 255
-31.9013 -57.5812 35.1787  255 255 255
22.9469 -59.3593 37.7173  255 255 255
-3.80724 -59.4017 37.6132  255 255 255
-44.4689 -59.507 36.5691  255 255 255
-14.9421 -59.993 38.9086  255 255 255
54.4379 -61.5646 42.744  255 255 255
-13.7508 -60.4019 38.8533  255 255 255
-21.8063 -60.4184 39.142  255 255 255
-13.2357 -60.9099 39.6309  255 255 255
-88.9686 -61.4115 36.8111  255 255 255
32.4031 -62.2346 42.156  255 255 255
-16.7481 -61.2128 40  255 255 255
39.1606 -62.6136 43.7499  255 255 255
-16.9781 -61.7025 40.6993  255 255 255
-6.77692 -62.7326 42.744  255 255 255
20.9154 -63.3834 43.9532  255 255 255
-42.0797 -62.6662 41.272  255 255 255
-10.8495 -62.9313 42.2357  255 255 255
-10.8332 -62.8586 42.372  255 255 255
62.3151 60.17 -12.4014  255 255 255
-55.5477 67.5566 -43.1142  255 255 255
-44.2239 69.0865 -48.7879  255 255 255
64.6245 88.4224 -104.838  255 255 255
-72.791 64.3904 -34.4243  255 255 255
-72.7915 64.2631 -34.1622  255 255 255
6.61827 77.3913 -75.9936  255 255 255
63.1571 58.6735 -11.34  255 255 255
53.5115 85.4108 -101.321  255 255 255
-88.6883 60.7896 -24.9635  255 255 255
-88.9118 61.1554 -26.361  255 255 255
-66.8204 64.1021 -38.2163  255 255 255
-34.6189 68.7974 -55.5556  255 255 255
-6.77609 73.5371 -70.9868  255 255 255
34.0825 80.6861 -92.3533  255 255 255
34.0825 80.6861 -92.3533  255 255 255
-77.29 61.9869 -33.0572  255 255 255
72.7322 86.9119 -110.61  255 255 255
-59.6801 64.1329 -42.6111  255 255 255
78.9996 87.6033 -113.931  255 255 255
61.8345 57.2899 -15.5042  255 255 255
-71.5407 61.2719 -35.8496  255 255 255
-86.0445 59.0414 -28.576  255 255 255
40.3077 79.4345 -96.565  255 255 255
58.4398 58.5284 -23.4211  255 255 255
29.784 77.5864 -90.74  255 255 255
64.518 54.6343 -9.17161  255 255 255
-55.174 63.2313 -46.7384  255 255 255
-55.1976 63.233 -46.826  255 255 255
29.7252 76.1906 -91.9019  255 255 255
-72.7734 60.0829 -37.5173  255 255 255
-26.6015 66.8359 -62.6542  255 255 255
-26.5765 66.8344 -62.6807  255 255 255
57.8354 45.3018 18.972  255 255 255
56.1687 46.1891 14.6793  255 255 255
37.5882 76.4316 -93.866  255 255 255
58.3241 44.5869 19.724  255 255 255
35.0999 76.0257 -95.6306  255 255 255
-57.1464 60.7403 -47.5154  255 255 255
-57.1679 60.6047 -46.9721  255 255 255
-71.686 58.3888 -39.6  255 255 255
-54.8896 60.4546 -48.9591  255 255 255
-54.8592 60.4425 -48.9933  255 255 255
-72.8045 57.8471 -38.7799  255 255 255
-41.5878 62.1725 -56.7074  255 255 255
-5.21023 66.6009 -75.984  255 255 255
61.6224 40.1491 28.2132  255 255 255
-57.3604 58.7188 -48.5763  255 255 255
84.6807 80.6498 -122.394  255 255 255
-9.11578 65.3934 -74.7452  255 255 255
61.1435 52.3119 -20.6509  255 255 255
59.5836 41.6668 19.741  255 255 255
60.8334 40.5949 23.5254  255 255 255
10.4353 68.0805 -85.5734  255 255 255
85.5204 79.3547 -124.121  255 255 255
-126.18 67.1232 -82.1838  255 255 255
-2.77335 64.9379 -79.2859  255 255 255
62.046 39.6672 24.2646  255 255 255
-129.112 67.87 -88.0422  255 255 255
57.7244 41.5135 14.6278  255 255 255
-6.0211 63.4654 -78.2321  255 255 255
-6.14919 63.2655 -77.1445  255 255 255
-18.6096 61.4112 -72.5908  255 255 255
12.0001 65.1754 -86.1751  255 255 255
64.2821 36.3179 33.414  255 255 255
-55.5377 56.2297 -52.5332  255 255 255
-13.8243 61.6984 -75.0864  255 255 255
-13.7756 61.704 -75.1073  255 255 255
27.9068 67.8929 -97.4751  255 255 255
58.4908 51.2445 -28.3966  255 255 255
58.623 51.3815 -28.7321  255 255 255
59.4868 39.6718 18.793  255 255 255
60.3575 50.251 -25.3784  255 255 255
60.3575 50.251 -25.3784  255 255 255
-25.1517 59.3949 -68.8918  255 255 255
-17.8833 60.3003 -73.5423  255 255 255
64.2895 36.6237 29.472  255 255 255
-87.3789 51.0606 -34.4521  255 255 255
37.1108 67.8324 -102.985  255 255 255
-62.2402 53.9551 -48.9621  255 255 255
-62.2402 53.9551 -48.9621  255 255 255
29.3663 66.6442 -99.006  255 255 255
-7.06888 61.1827 -79.5578  255 255 255
-24.4411 58.4494 -70.3244  255 255 255
-70.8337 52.283 -44.2437  255 255 255
-38.6975 56.3139 -62.4736  255 255 255
-25.954 57.859 -69.6097  255 255 255
-25.9462 57.8783 -69.6399  255 255 255
-25.9171 57.904 -69.91  255 255 255
-84.5899 49.9166 -35.0897  255 255 255
-23.5436 57.4254 -71.8179  255 255 255
-6.27623 59.629 -80.9833  255 255 255
-44.6063 54.3689 -59.8108  255 255 255
-84.4016 49.5529 -37.7724  255 255 255
64.6759 35.0958 28.6401  255 255 255
58.3331 48.6481 -30.8921  255 255 255
-17.4105 55.6882 -69.8776  255 255 255
-6.24265 58.1637 -82.3924  255 255 255
65.0666 34.1846 29.1976  255 255 255
67.1029 32.8885 34.3303  255 255 255
67.5329 32.0731 37.8852  255 255 255
-133.55 63.9314 -103.843  255 255 255
58.8114 46.8713 -31.0244  255 255 255
58.8561 46.9228 -31.1025  255 255 255
60.4587 46.0807 -27.2487  255 255 255
-8.58115 56.7847 -81.8065  255 255 255
-6.40307 57.013 -82.764  255 255 255
-57.578 50.0251 -55.4913  255 255 255
-41.1959 51.8548 -64.4965  255 255 255
-41.7987 50.9991 -64.9129  255 255 255
-45.0328 50.4688 -62.8308  255 255 255
-57.4563 47.9882 -56.5081  255 255 255
-71.3025 46.2042 -48.9928  255 255 255
-45.0688 48.8902 -64.0455  255 255 255
-74.6562 45.3857 -46.418  255 255 255
-48.3019 48.2664 -62.5682  255 255 255
-27.668 50.764 -74.2733  255 255 255
-68.5985 45.7861 -51.0296  255 255 255
-68.5985 45.7861 -51.0296  255 255 255
-46.8199 47.9368 -62.4677  255 255 255
-46.6949 48.2444 -62.9504  255 255 255
-63.3574 46.2298 -54.2822  255 255 255
59.5465 32.962 14.1787  255 255 255
-54.5391 45.977 -58.3612  255 255 255
-47.7848 45.9696 -64.3909  255 255 255
56.7429 33.1178 6.59042  255 255 255
56.3128 33.0572 5.97006  255 255 255
-25.6248 47.5242 -77.8752  255 255 255
-57.3951 43.7422 -60.0061  255 255 255
-57.3086 43.684 -59.9018  255 255 255
-57.8123 42.9668 -60.541  255 255 255
-57.8238 42.9404 -60.4477  255 255 255
-4.8697 48.2206 -90.8914  255 255 255
-4.77312 48.2857 -91.2243  255 255 255
-89.0143 39.7564 -41.8897  255 255 255
-59.3162 42.4464 -59.7598  255 255 255
62.104 37.2569 -28.2737  255 255 255
-81.5295 39.8586 -47.1233  255 255 255
-81.4845 39.8546 -47.0267  255 255 255
63.0267 35.6062 -25.8656  255 255 255
-44.2909 41.6424 -70.1795  255 255 255
63.8335 34.8924 -25.215  255 255 255
60.6459 27.732 13.6124  255 255 255
64.4015 33.9821 -23.9648  255 255 255
63.4973 34.229 -26.484  255 255 255
-78.079 37.108 -49.4069  255 255 255
59.7251 35.2043 -36.7549  255 255 255
68.632 24.2338 31.9664  255 255 255
-135.075 46.2892 -101.57  255 255 255
64.1054 33.1007 -25.6822  255 255 255
64.1148 33.1101 -25.7207  255 255 255
60.4331 26.7607 12.4515  255 255 255
-91.7769 34.8823 -43.9181  255 255 255
-91.8569 34.8911 -44.16  255 255 255
-72.3692 36.3601 -56.0554  255 255 255
-65.2767 36.8363 -60.0185  255 255 255
66.0993 24.2699 25.4167  255 255 255
-90.779 34.738 -45.5146  255 255 255
68.2453 23.0908 29.9672  255 255 255
68.1995 23.077 30.0402  255 255 255
69.5578 22.464 33.3735  255 255 255
56.5647 38.7304 -86.5266  255 255 255
-64.0539 34.2165 -62.3832  255 255 255
-37.9388 35.3929 -79.1478  255 255 255
-90.7774 31.3924 -47.0905  255 255 255
-85.0063 31.8078 -51.7678  255 255 255
-80.8662 32.0303 -59.2907  255 255 255
-79.3801 31.9617 -58.9483  255 255 255
-124.902 36.2157 -88.1085  255 255 255
58.3124 22.6679 4.24799  255 255 255
58.319 22.6703 4.23203  255 255 255
61.2756 21.6028 12.0458  255 255 255
66.65 19.9817 24.3249  255 255 255
58.4784 21.9611 4.123  255 255 255
67.3067 19.6651 24.4456  255 255 255
-3.96136 31.3211 -77.9184  255 255 255
70.5042 18.3961 32.7347  255 255 255
70.7145 18.2978 33.2957  255 255 255
4.82406 29.682 -75.7864  255 255 255
63.1179 19.6856 14.759  255 255 255
1.87692 29.5061 -75.9145  255 255 255
57.9879 20.8226 1.77102  255 255 255
-93.7263 26.4649 -50.4244  255 255 255
4.34694 27.847 -73.5802  255 255 255
-49.4693 28.1225 -74.7778  255 255 255
57.1216 20.0049 -0.83812  255 255 255
3.57086 26.7456 -71.0555  255 255 255
5.03765 27.0262 -72.1239  255 255 255
4.99023 27.0192 -72.0019  255 255 255
66.6267 17.3463 22.3618  255 255 255
-42.3142 27.1375 -73.6112  255 255 255
-10.1991 26.1534 -71.2526  255 255 255
-10.2425 26.2028 -71.425  255 255 255
5.95008 26.1998 -71.4608  255 255 255
-13.8031 26.1061 -71.0385  255 255 255
-119.485 27.3324 -74.8621  255 255 255
-89.2839 24.3269 -54.2955  255 255 255
40.4934 24.4656 -68.3768  255 255 255
-39.0104 23.974 -67.9566  255 255 255
-92.6202 22.2414 -53.0631  255 255 255
-117.681 24.4512 -71.6041  255 255 255
71.3274 14.0647 31.7987  255 255 255
-91.6196 21.7688 -52.7297  255 255 255
61.4831 15.9554 6.64118  255 255 255
71.9757 13.3875 33.5697  255 255 255
-10.8823 21.502 -65.1623  255 255 255
28.1736 21.3944 -64.8995  255 255 255
-93.4574 20.4342 -54.5171  255 255 255
71.0231 12.5943 30.8124  255 255 255
71.5382 12.471 32.0954  255 255 255
-20.799 19.8304 -65.1805  255 255 255
71.2147 12.4656 31.4359  255 255 255
71.2988 12.465 31.3292  255 255 255
71.1667 11.9389 31.0134  255 255 255
71.8325 11.8773 31.9532  255 255 255
71.6369 11.5714 30.9551  255 255 255
71.6369 11.5714 30.9551  255 255 255
-62.3768 17.7101 -60.5444  255 255 255
55.984 12.9503 -6.93095  255 255 255
60.1993 12.611 0.767284  255 255 255
65.9139 11.5564 16.0096  255 255 255
70.8664 10.5957 29.3187  255 255 255
71.379 10.3197 30.2935  255 255 255
-12.1113 14.2333 -56.1408  255 255 255
59.7454 10.7404 -0.931128  255 255 255
60.034 10.2178 -0.371579  255 255 255
66.5941 8.82304 15.779  255 255 255
60.0836 9.01269 -0.895438  255 255 255
-18.3024 11.14 -52.1169  255 255 255
66.8392 8.10607 16.1157  255 255 255
66.8446 8.10279 16.1275  255 255 255
-5.34805 6.79414 22.8633  255 255 255
71.3325 6.73631 27.5135  255 255 255
71.3193 6.73279 27.5339  255 255 255
-58.2632 9.98363 -50.8474  255 255 255
65.0944 7.25384 10.6334  255 255 255
65.0589 7.21766 10.6673  255 255 255
-46.0899 8.80937 -49.5959  255 255 255
66.5327 6.26243 16.1399  255 255 255
-25.8428 8.35779 -48.5949  255 255 255
-92.3525 8.86288 -48.9338  255 255 255
-49.9787 8.05617 -48.2773  255 255 255
60.5215 6.65054 -2.90203  255 255 255
-46.5318 7.54223 -50.9722  255 255 255
-42.2277 6.75932 -45.5411  255 255 255
-49.2191 6.48516 -46.8646  255 255 255
72.1102 4.31352 27.3225  255 255 255
62.5515 4.3288 2.14885  255 255 255
-131.558 6.69987 -47.0822  255 255 255
-17.0342 3.04144 23.3982  255 255 255
65.1704 3.49699 7.4899  255 255 255
-32.8065 4.24079 -44.0194  255 255 255
66.2945 3.21814 11.0748  255 255 255
66.3214 3.21842 11.0344  255 255 255
-75.8289 4.69351 -44.9209  255 255 255
-54.0026 4.17111 -43.1571  255 255 255
66.6573 2.82113 11.5252  255 255 255
67.7691 2.58727 14.7261  255 255 255
67.7867 2.58873 14.6959  255 255 255
69.6267 2.15197 21.4078  255 255 255
67.2806 1.80368 12.8155  255 255 255
68.8832 1.93706 17.1827  255 255 255
68.5918 1.64287 16.142  255 255 255
-20.7165 1.48916 10.7518  255 255 255
66.5289 0.746882 10.5315  255 255 255
66.5289 0.746882 10.5315  255 255 255
-21.8954 0.553457 11.2034  255 255 255
72.4864 0.278184 25.7734  255 255 255
72.4887 0.287928 25.7623  255 255 255
72.4887 0.287928 25.7623  255 255 255
67.2895 0.016003 12.5329  255 255 255
66.8837 -0.164281 10.5067  255 255 255
69.7095 -0.252605 17.5482  255 255 255
69.7057 -0.252222 17.5579  255 255 255
-10.0847 -0.49809 33.2532  255 255 255
63.4618 -0.79776 -0.702837  255 255 255
-21.877 -0.592175 11.8777  255 255 255
60.4169 -1.00718 -7.55183  255 255 255
60.7142 -1.03448 -8.17658  255 255 255
69.3997 -0.941915 16.2894  255 255 255
70.567 -0.979266 19.4506  255 255 255
71.6577 -0.971285 22.6896  255 255 255
11.2958 -1.46907 31.8353  255 255 255
71.0983 -1.85752 19.5005  255 255 255
67.5869 -2.15356 10.0623  255 255 255
-49.5078 -2.35252 -35.6919  255 255 255
69.4504 -2.12649 15.7313  255 255 255
69.4616 -2.12643 15.7143  255 255 255
-49.4333 -3.08885 -35.1136  255 255 255
58.7302 -3.39215 -13.9766  255 255 255
69.0924 -3.03137 14.2446  255 255 255
70.9164 -3.02981 18.5772  255 255 255
59.343 -4.04145 -13.2225  255 255 255
-46.2214 -3.98882 -33.3596  255 255 255
-6.62983 -3.02655 36.5474  255 255 255
66.2007 -4.02922 5.83026  255 255 255
69.531 -3.74241 15.2391  255 255 255
58.3494 -4.72967 -17.0412  255 255 255
66.5611 -4.55656 6.43582  255 255 255
66.5756 -4.56426 6.42812  255 255 255
-11.1656 -4.29926 35.5873  255 255 255
-50.0715 -6.85331 -29.7348  255 255 255
66.1768 -6.42786 4.2659  255 255 255
66.3227 -6.40304 3.99675  255 255 255
-75.9433 -6.86308 -30.3544  255 255 255
68.2064 -6.45448 8.81118  255 255 255
-3.70771 -5.25809 38.3282  255 255 255
67.6575 -7.14019 6.97361  255 255 255
-1.13576 -5.65232 38.6925  255 255 255
73.2231 -6.61172 22.7951  255 255 255
-71.0656 -7.81625 -28.6389  255 255 255
66.9024 -7.49465 4.84605  255 255 255
68.7397 -7.80192 9.3976  255 255 255
73.3976 -8.052 22.7151  255 255 255
66.6626 -9.15495 2.5842  255 255 255
73.9706 -8.18646 25.0564  255 255 255
69.7323 -9.0132 12.2137  255 255 255
66.3125 -9.80829 1.28971  255 255 255
57.8701 -11.4503 -21.8381  255 255 255
70.5815 -9.79019 13.3269  255 255 255
70.5815 -9.79019 13.3269  255 255 255
-115.867 -10.5191 -25.1707  255 255 255
-51.4992 -11.1071 -24.1412  255 255 255
-20.1045 -8.46434 29.5483  255 255 255
4.92952 -8.26301 38.3917  255 255 255
68.7171 -10.8889 7.31939  255 255 255
74.0881 -9.89153 23.3098  255 255 255
70.8235 -10.7098 13.452  255 255 255
50.9197 -12.8995 -19.6055  255 255 255
60.5506 -13.0517 -14.8576  255 255 255
63.6203 -12.6652 -7.77101  255 255 255
68.5395 -11.7638 6.20845  255 255 255
68.5395 -11.7638 6.20845  255 255 255
11.39 -9.28512 36.2021  255 255 255
71.0107 -11.4838 12.9903  255 255 255
-57.3708 -12.9216 -22.2669  255 255 255
69.5948 -11.9308 8.71189  255 255 255
-64.2945 -12.9337 -21.9985  255 255 255
-66.3033 -13.2799 -21.5974  255 255 255
-22.5696 -10.3047 26.5452  255 255 255
-55.0758 -13.555 -20.9336  255 255 255
13.3323 -10.2068 34.5396  255 255 255
69.1382 -12.6522 7.2943  255 255 255
69.1382 -12.6522 7.2943  255 255 255
75.1107 -11.3355 25.0845  255 255 255
75.1625 -11.3423 25.0149  255 255 255
66.1589 -13.3041 -1.67062  255 255 255
66.1823 -13.3049 -1.68635  255 255 255
71.2224 -12.2694 12.7393  255 255 255
71.2195 -12.2608 12.7352  255 255 255
71.2432 -12.261 12.6963  255 255 255
-65.5363 -13.7185 -21.0295  255 255 255
56.5955 -14.6796 -18.8583  255 255 255
-66.629 -14.0438 -21.2962  255 255 255
66.6824 -13.6631 -0.246154  255 255 255
66.5045 -13.6563 0.0401891  255 255 255
-71.5774 -14.1062 -21.3452  255 255 255
75.4015 -12.0333 24.8683  255 255 255
-63.3369 -14.5053 -20.3751  255 255 255
62.0655 -15.5122 -12.914  255 255 255
-54.8424 -15.5936 -18.7304  255 255 255
65.7873 -15.4505 -3.15511  255 255 255
76.6186 -13.1143 27.5204  255 255 255
-55.3518 -16.0516 -18.6975  255 255 255
64.4128 -16.7218 -7.89492  255 255 255
64.1008 -16.6669 -7.35424  255 255 255
70.4182 -15.3839 8.57518  255 255 255
71.7148 -15.1204 12.1363  255 255 255
65.7958 -16.5135 -4.708  255 255 255
-75.094 -16.53 -18.2555  255 255 255
69.2786 -16.1862 4.16149  255 255 255
70.6349 -16.7852 7.95442  255 255 255
70.6259 -16.778 7.951  255 255 255
70.6526 -16.7704 7.92928  255 255 255
68.2269 -17.4478 1.20962  255 255 255
2.47109 -13.096 39.5124  255 255 255
19.6212 -14.5273 30.0661  255 255 255
11.5867 -14.2092 35.7974  255 255 255
-58.3154 -18.9105 -14.2973  255 255 255
-58.3333 -18.9229 -14.3648  255 255 255
-18.6458 -14.4098 32.7116  255 255 255
-66.2309 -18.9888 -14.2778  255 255 255
-31.3337 -15.3197 26.2092  255 255 255
-20.3402 -15.0909 31.4902  255 255 255
4.13843 -14.5392 39.6231  255 255 255
-64.9751 -19.6012 -13.3865  255 255 255
-57.9395 -19.5426 -13.3164  255 255 255
71.1912 -19.0659 8.17628  255 255 255
71.2899 -19.0687 8.00494  255 255 255
-67.0198 -19.9177 -13.5393  255 255 255
12.3238 -16.2493 35.4296  255 255 255
-54.037 -21.4036 -11.2188  255 255 255
73.7917 -19.8883 16.1374  255 255 255
-53.2734 -21.4538 -10.9876  255 255 255
-30.9621 -17.1053 27.937  255 255 255
-30.9441 -17.0807 28.1232  255 255 255
-3.77263 -16.0431 40.1831  255 255 255
-3.75458 -16.0645 40.0812  255 255 255
70.7363 -21.5885 2.57049  255 255 255
69.2332 -22.24 0.401467  255 255 255
75.8746 -20.3144 20.2464  255 255 255
-70.085 -23.5464 -9.29733  255 255 255
70.5286 -24.4132 2.24488  255 255 255
-61.0468 -25.7529 -5.8542  255 255 255
13.2144 -20.4699 37.6958  255 255 255
52.8801 -27.6539 -2.5426  255 255 255
74.7979 -26.1256 11.9141  255 255 255
-17.4244 -21.237 37.0752  255 255 255
-63.7327 -27.6853 -4.88992  255 255 255
71.114 -29.3278 0.345969  255 255 255
-60.7885 -27.8676 -3.64321  255 255 255
76.1624 -28.5307 15.1484  255 255 255
76.1261 -28.5234 15.2111  255 255 255
-3.10626 -22.7461 40.7428  255 255 255
3.54112 -23.1624 40.5422  255 255 255
-1.25449 -23.0631 41.2006  255 255 255
-32.224 -27.0732 17.8616  255 255 255
-9.73119 -23.4431 40.3971  255 255 255
11.2049 -24.1916 38.1975  255 255 255
78.1845 -29.071 18.9775  255 255 255
0.106669 -23.8752 41.1936  255 255 255
75.3208 -30.3934 15.0817  255 255 255
79.6274 -28.8115 24.3492  255 255 255
73.4464 -33.1897 3.97728  255 255 255
-16.4808 -24.9255 38.197  255 255 255
-62.4104 -31.8665 2.27644  255 255 255
-16.3603 -25.8026 39.2075  255 255 255
78.7589 -31.908 19.3493  255 255 255
8.77122 -26.5846 40.0115  255 255 255
-65.1674 -33.3279 3.7807  255 255 255
-19.2921 -26.8829 40.3464  255 255 255
-27.7427 -29.6341 28.0449  255 255 255
-16.2344 -27.47 41.235  255 255 255
12.2158 -28.0929 41.3899  255 255 255
-19.4156 -27.4695 41.4296  255 255 255
-19.4133 -27.4758 41.4272  255 255 255
79.7901 -34.4163 20.25  255 255 255
-63.5509 -35.1362 5.72326  255 255 255
10.593 -28.403 41.9679  255 255 255
76.7966 -37.0964 10.5812  255 255 255
80.3696 -36.0158 20.4532  255 255 255
-14.385 -30.0072 40.6934  255 255 255
-0.493685 -29.891 43.9537  255 255 255
5.12283 -30.2175 43.9758  255 255 255
-1.70872 -31.1201 43.2982  255 255 255
10.5941 -35.6701 36.9518  255 255 255
-16.252 -36.3194 34.5296  255 255 255
-10.3972 -37.522 36.6903  255 255 255
13.9154 -40.0962 31.8593  255 255 255
16.9301 -41.398 31.0882  255 255 255
19.5562 -43.2344 31.1282  255 255 255
63.4932 -48.7816 26.0323  255 255 255
23.915 -48.382 27.3543  255 255 255
23.9109 -48.3699 27.3409  255 255 255
-9.53746 -47.4205 37.3448  255 255 255
32.5054 -52.9725 29.5979  255 255 255
30.6524 -53.7359 30.0788  255 255 255
62.5743 -54.6226 33.9082  255 255 255
-40.8306 -53.1225 29.1732  255 255 255
58.0545 -56.6535 36.9134  255 255 255
-38.2325 -55.758 32.8625  255 255 255
56.273 -58.3001 38.3899  255 255 255
-26.7571 -57.9021 35.7843  255 255 255
-26.7598 -57.8879 35.7732  255 255 255
-33.0442 -58.2098 35.9885  255 255 255
24.3822 -59.7085 38.1722  255 255 255
-23.4406 -59.7419 38.0972  255 255 255
-20.2646 -60.0854 38.6928  255 255 255
-44.3408 -60.5466 37.7842  255 255 255
-1.52944 -61.0196 39.6386  255 255 255
-14.259 -60.6611 39.8416  255 255 255
-22.6082 -60.8642 39.6559  255 255 255
-0.325166 -61.7255 40.3384  255 255 255
-11.0836 -61.4324 40.3813  255 255 255
-8.38178 -61.5402 40.4979  255 255 255
-16.4516 -61.6451 40.1483  255 255 255
-5.00441 -61.9753 41.1828  255 255 255
57.5172 -63.0823 45.5894  255 255 255
32.2094 -63.424 44.7226  255 255 255
